ply
format ascii 1.0
comment PCL generated
element vertex 1035
property float x
property float y
property float z
property uchar red
property uchar green
property uchar blue
element camera 0
property float view_px
property float view_py
property float view_pz
property float x_axisx
property float x_axisy
property float x_axisz
property float y_axisx
property float y_axisy
property float y_axisz
property float z_axisx
property float z_axisy
property float z_axisz
property float focal
property float scalex
property float scaley
property float centerx
property float centery
property int viewportx
property int viewporty
property float k1
property float k2
end_header
-0.009567732 -0.025995497 0.039926939 32 0 223
-0.0087876851 -0.025561342 0.03725842 159 0 96
-0.008219704 -0.025116351 0.032538392 255 0 0
-0.0074077253 -0.024678506 0.030064309 255 0 0
-0.0067691957 -0.024230199 0.025877301 255 0 0
-0.0061853291 -0.023775505 0.021083869 255 0 0
-0.0055492003 -0.023319762 0.016716186 255 0 0
-0.0049533835 -0.022857914 0.011870543 255 0 0
-0.0045544007 -0.02237903 0.0049696444 255 0 0
-0.0042078327 -0.021890441 -0.0025897014 255 0 0
-0.0034666234 -0.021424657 -0.0062723239 255 0 0
-0.0028718514 -0.020944076 -0.011530191 255 0 0
-0.0031513656 -0.020385763 -0.025962943 255 0 0
-0.0035660479 -0.019802343 -0.042095013 255 0 0
-0.0024420379 -0.019347673 -0.042256124 255 0 0
-0.0013199121 -0.018892726 -0.042438548 255 0 0
-0.00019392003 -0.018438086 -0.042580102 255 0 0
0.00092986808 -0.017983183 -0.042747498 255 0 0
0.0020535775 -0.017528221 -0.042916816 255 0 0
0.0031787904 -0.017073272 -0.043072276 255 0 0
0.0043033184 -0.016618256 -0.043235522 255 0 0
0.0054276418 -0.016163189 -0.043401521 255 0 0
0.0065520746 -0.015708024 -0.043568954 255 0 0
0.0076781861 -0.015252985 -0.043718744 255 0 0
0.0088024819 -0.014797647 -0.043890968 255 0 0
0.0099273231 -0.014342334 -0.044057332 255 0 0
0.011051374 -0.013886803 -0.044236045 255 0 0
0.013832311 -0.01370591 -0.02428302 255 0 0
0.015552591 -0.013363646 -0.016905498 255 0 0
0.017002353 -0.012981037 -0.012718278 255 0 0
0.018583855 -0.012627609 -0.0067722616 255 0 0
0.020048648 -0.0122583 -0.0021695534 255 0 0
0.021564955 -0.011904554 0.0032108752 255 0 0
0.023000313 -0.011540254 0.0076691424 255 0 0
0.024281792 -0.011148119 0.01020743 255 0 0
0.025647074 -0.010777586 0.013931015 255 0 0
0.027071033 -0.010425119 0.01854643 255 0 0
0.028363727 -0.010047022 0.021483371 255 0 0
0.029693283 -0.0096815312 0.025009602 255 0 0
0.031002769 -0.0093153771 0.028347615 255 0 0
0.032212313 -0.008927172 0.030354429 255 0 0
0.033388641 -0.008532552 0.031937264 96 0 159
0.034721933 -0.0081841946 0.035863541 0 0 255
0.035951596 -0.0078108343 0.038362525 0 0 255
0.037153989 -0.007432681 0.040524192 0 0 255
0.038349014 -0.0070551969 0.042636491 0 0 255
0.039511453 -0.00667019 0.044308111 0 0 255
0.040704329 -0.0062977383 0.046510868 0 0 255
0.04182769 -0.0059045935 0.047671512 32 0 223
0.042910054 -0.0054987711 0.04820697 32 0 223
0.043999702 -0.0050964984 0.048881367 0 0 255
0.045023147 -0.0046703732 0.048474312 0 0 255
0.04603352 -0.004238768 0.047836695 0 0 255
0.047025729 -0.0037990117 0.046867169 0 0 255
0.047807772 -0.0032708133 0.042189367 0 0 255
-0.021587139 -0.032137889 0.042802911 0 0 159
-0.019567851 -0.031702626 0.050931498 0 0 255
-0.018147198 -0.031278934 0.054059006 0 0 255
-0.016984245 -0.030859217 0.055010341 0 0 255
-0.022377454 -0.03045975 -0.0011686459 96 0 159
-0.014809613 -0.03002201 0.055635221 0 0 255
-0.013886938 -0.029603334 0.054499261 0 0 255
-0.012940337 -0.029184019 0.053559147 0 0 255
-0.012015107 -0.028763754 0.052411616 0 0 255
-0.011227313 -0.028340809 0.049997516 32 0 223
-0.010391406 -0.027916925 0.047984552 0 0 255
-0.0095843542 -0.027490862 0.045670912 0 0 255
-0.0088154813 -0.027062124 0.042962309 0 0 255
-0.008061924 -0.026630837 0.040062856 0 0 255
-0.0073468117 -0.026196035 0.036749132 128 0 128
-0.0064926585 -0.025763635 0.03470853 255 0 0
-0.0058265748 -0.025322132 0.030815672 255 0 0
-0.0051548923 -0.024877686 0.026907496 255 0 0
-0.0046609235 -0.024421502 0.021179354 255 0 0
-0.0038970062 -0.023974687 0.018028747 255 0 0
-0.0032410729 -0.023519138 0.01373664 255 0 0
-0.0025848167 -0.023060026 0.0093689337 255 0 0
-0.0019913677 -0.022593061 0.0042775148 255 0 0
-0.0011169284 -0.022141352 0.0019884836 255 0 0
-0.00072025676 -0.021652166 -0.0053216238 255 0 0
-0.00019007697 -0.021167133 -0.011368781 255 0 0
4.3676988e-05 -0.020651868 -0.020685919 255 0 0
0.0005680935 -0.020153956 -0.027067419 255 0 0
0.00025103535 -0.019571602 -0.042702563 255 0 0
0.0013758626 -0.019116864 -0.042859185 255 0 0
0.0024989748 -0.018661872 -0.043035407 255 0 0
0.0036258206 -0.018207163 -0.043173041 255 0 0
0.0047495817 -0.017752085 -0.043345448 255 0 0
0.0058736675 -0.017296996 -0.043515604 255 0 0
0.0069990121 -0.016841996 -0.043673426 255 0 0
0.0081233354 -0.016386814 -0.043843672 255 0 0
0.0092504257 -0.015931869 -0.043983839 255 0 0
0.012358485 -0.015759872 -0.020483466 255 0 0
0.014005082 -0.015394327 -0.01408882 255 0 0
0.015459768 -0.015005727 -0.009888242 255 0 0
0.016843526 -0.014610129 -0.0064648408 255 0 0
0.018417621 -0.014250261 -0.00058221415 255 0 0
0.01972156 -0.01384958 0.0020283246 255 0 0
0.021055141 -0.013457243 0.0050818226 255 0 0
0.022422558 -0.013074687 0.0086493874 255 0 0
0.023824541 -0.012702982 0.012759675 255 0 0
0.025235087 -0.012337741 0.017087668 255 0 0
0.026566848 -0.011960885 0.02046789 255 0 0
0.027853098 -0.011578121 0.023317074 255 0 0
0.02913704 -0.011198243 0.026210424 255 0 0
0.030304708 -0.010794607 0.027558675 255 0 0
0.031628497 -0.01043064 0.031153325 255 0 0
0.032905545 -0.010059374 0.034176033 64 0 191
0.034100648 -0.0096705826 0.036092252 0 0 255
0.035319392 -0.0092906766 0.038412724 0 0 255
0.036552504 -0.0089178113 0.041014403 0 0 255
0.037709452 -0.0085264537 0.042539433 0 0 255
0.038901348 -0.0081476122 0.044646692 0 0 255
0.040076386 -0.0077664531 0.04655467 0 0 255
0.04120402 -0.0073728641 0.047773585 0 0 255
0.04227272 -0.0069616321 0.048084468 0 0 255
0.043372758 -0.0065617017 0.048920412 32 0 223
0.044409007 -0.0061405217 0.048727598 0 0 255
0.045418512 -0.0057095303 0.048082072 0 0 255
0.046407141 -0.005269934 0.047064424 0 0 255
0.047265206 -0.004778346 0.043752331 0 0 255
-0.019666458 -0.032762185 0.046474278 0 0 191
-0.017964914 -0.032328945 0.051992938 0 0 255
-0.016605092 -0.031904716 0.054639027 0 0 255
-0.015466277 -0.031484965 0.055397715 0 0 255
-0.014372788 -0.031066168 0.055771016 0 0 255
-0.020762408 -0.030682711 -0.010384248 96 0 159
-0.012439421 -0.030229902 0.054266036 0 0 255
-0.011527143 -0.029810904 0.053003918 0 0 255
-0.01065712 -0.029390886 0.05133782 0 0 255
-0.018542672 -0.028891565 -0.030895839 32 0 223
-0.0089276461 -0.028546942 0.047823533 0 0 255
-0.0081712743 -0.028121253 0.04500813 0 0 255
-0.007403845 -0.027693696 0.042249162 0 0 255
-0.0064516519 -0.02726832 0.041202784 0 0 255
-0.0056914757 -0.026836965 0.038292333 64 0 191
-0.004959736 -0.026402444 0.035055872 223 0 32
-0.0043529412 -0.02596103 0.030538043 255 0 0
-0.0035349131 -0.02552421 0.028024653 255 0 0
-0.002936051 -0.025075894 0.023280649 255 0 0
-0.0021259848 -0.024633676 0.020574965 255 0 0
-0.0013514659 -0.024187492 0.017458716 255 0 0
-0.00060525502 -0.023737112 0.013993316 255 0 0
1.8211664e-05 -0.023276472 0.0091912588 255 0 0
0.00083306665 -0.022824135 0.0062995162 255 0 0
0.001530647 -0.022361169 0.0021118163 255 0 0
0.0021507114 -0.02188888 -0.0029834921 255 0 0
0.0031213171 -0.021439694 -0.004402515 255 0 0
0.0040437458 -0.020985339 -0.00637272 255 0 0
0.004941815 -0.020527132 -0.0086485287 255 0 0
0.0057991054 -0.020063091 -0.011423515 255 0 0
0.006665064 -0.019597368 -0.01415834 255 0 0
0.0078374948 -0.019161098 -0.013469967 255 0 0
0.0091461819 -0.018740531 -0.011201168 255 0 0
0.010300632 -0.018304445 -0.010670287 255 0 0
0.011602732 -0.01788683 -0.0083939638 255 0 0
0.012725046 -0.017448753 -0.0081965309 255 0 0
0.014011387 -0.017032731 -0.0060269521 255 0 0
0.015429048 -0.016637081 -0.0022136315 255 0 0
0.016696073 -0.016223608 -0.00015865132 255 0 0
0.017946841 -0.015809948 0.0017460133 255 0 0
0.019444712 -0.015437201 0.006797594 255 0 0
0.020725554 -0.015034318 0.0092157042 255 0 0
0.022100879 -0.014650182 0.012907986 255 0 0
0.023370368 -0.01425134 0.015315421 255 0 0
0.024676675 -0.013862015 0.018269269 255 0 0
0.025915651 -0.013463158 0.020402027 255 0 0
0.027301375 -0.013095913 0.024569768 255 0 0
0.028581886 -0.012711833 0.027409468 255 0 0
0.029834101 -0.012324975 0.029932655 255 0 0
0.031103358 -0.011944955 0.032763675 191 0 64
0.032171655 -0.011521935 0.032814339 128 0 128
0.033509243 -0.011163589 0.036749594 0 0 255
0.034755643 -0.010787459 0.039462458 0 0 255
0.035899408 -0.01038838 0.040733658 0 0 255
0.037093885 -0.010004455 0.042803414 0 0 255
0.038223874 -0.009605513 0.043953851 0 0 255
0.039402701 -0.0092220008 0.045891941 32 0 223
0.04056067 -0.0088350279 0.047563739 0 0 255
0.038138933 -0.0073570814 -0.0076276129 64 0 191
0.042735461 -0.0080234846 0.048788913 0 0 255
0.043785464 -0.007606931 0.048822094 0 0 255
0.044817496 -0.0071844547 0.048558757 0 0 255
0.045785334 -0.0067391894 0.047202315 0 0 255
0.046668984 -0.0062618465 0.044364803 0 0 255
-0.017881464 -0.033385325 0.049061112 0 0 255
-0.016453493 -0.032955971 0.052286323 0 0 255
-0.015245147 -0.032533217 0.053638652 0 0 255
-0.014008446 -0.032111052 0.055265803 0 0 255
-0.012944036 -0.031692374 0.055384897 0 0 255
-0.01197108 -0.031274702 0.05468427 0 0 255
-0.010965869 -0.030856429 0.054266822 0 0 255
-0.010041934 -0.030438144 0.05309907 0 0 255
-0.0092004109 -0.030019019 0.051152274 0 0 255
-0.0082550682 -0.029598871 0.050139166 0 0 255
-0.0073635466 -0.029177638 0.048604779 0 0 255
-0.0065716878 -0.028754231 0.046100568 0 0 255
-0.005792114 -0.028328758 0.043434881 0 0 255
-0.0049424889 -0.027902583 0.041398618 0 0 255
-0.0041494528 -0.027473602 0.038776867 32 0 223
-0.0034787855 -0.027039384 0.034904506 223 0 32
-0.0027446409 -0.026604047 0.031591315 255 0 0
-0.0018998405 -0.02616985 0.029326664 255 0 0
-0.0011753453 -0.02572936 0.025804717 255 0 0
-0.0006112046 -0.025279194 0.020580588 255 0 0
0.00050741906 -0.024850586 0.020969421 255 0 0
0.0013253056 -0.024407063 0.018239425 255 0 0
0.0021367285 -0.023960946 0.015389734 255 0 0
0.0027563267 -0.023500986 0.010450352 255 0 0
0.0036799656 -0.023056393 0.0086703561 255 0 0
0.004582834 -0.022608923 0.006633216 255 0 0
0.0055839857 -0.022166958 0.0056297742 255 0 0
0.0065104426 -0.021718321 0.0037821208 255 0 0
0.0074291592 -0.021267477 0.0018117884 255 0 0
0.0084453765 -0.020823542 0.0009015901 255 0 0
0.0094952108 -0.020382056 0.0003579593 255 0 0
0.010641709 -0.019949671 0.00091758056 255 0 0
0.011790187 -0.019518178 0.0015148282 255 0 0
0.012803307 -0.019072408 0.0005329519 255 0 0
0.014063577 -0.018654363 0.0024738368 255 0 0
0.015317302 -0.018237542 0.0043815211 255 0 0
0.016514899 -0.01781554 0.0056522377 255 0 0
0.017787695 -0.017404929 0.007880196 255 0 0
0.019176533 -0.017012896 0.011609034 255 0 0
0.020478874 -0.016612085 0.014335811 255 0 0
0.021695286 -0.016201045 0.016034324 255 0 0
0.022990916 -0.015804537 0.018799521 255 0 0
0.024129732 -0.015384956 0.01958368 255 0 0
0.02548199 -0.015003249 0.023214472 255 0 0
0.026724692 -0.014605812 0.025468923 255 0 0
0.028019235 -0.014220679 0.028487928 255 0 0
0.029308422 -0.013837923 0.031512715 255 0 0
0.030458305 -0.01343044 0.032679278 128 0 128
0.031740364 -0.013052237 0.035742972 0 0 255
0.032955784 -0.01266308 0.037938405 0 0 255
0.034176577 -0.012277769 0.040273976 0 0 255
0.0353337 -0.011880362 0.041740119 0 0 255
0.036447488 -0.011474205 0.042605221 0 0 255
0.033129476 -0.0099457707 -0.023400452 32 0 223
0.038736232 -0.010681465 0.045351904 0 0 255
0.039893113 -0.010291305 0.046984904 32 0 223
0.040987249 -0.0098855402 0.047676288 32 0 223
0.042110838 -0.0094894627 0.048865236 32 0 223
0.04315478 -0.0090709198 0.048798494 64 0 191
0.044195116 -0.0086512752 0.048672907 0 0 255
0.045188885 -0.0082164248 0.047766138 0 0 255
0.046126056 -0.0077614496 0.045871053 0 0 255
0.04676567 -0.0072005382 0.038777258 0 0 191
-0.018470995 -0.034469742 0.040282693 0 0 128
-0.016337473 -0.034012593 0.049607418 0 0 255
-0.01480681 -0.033578668 0.053780146 0 0 255
-0.019035306 -0.033289205 0.0069012404 32 0 223
-0.012554818 -0.032737173 0.055096593 0 0 255
-0.011456465 -0.03231775 0.055524457 0 0 255
-0.010480714 -0.031900529 0.0548447 64 0 191
-0.009524852 -0.031483129 0.053972378 0 0 255
-0.0085656121 -0.031065116 0.05311827 0 0 255
-0.0077795601 -0.030647397 0.05063118 0 0 255
-0.0069071651 -0.030227764 0.048916798 0 0 255
-0.0059372629 -0.029807106 0.048099589 0 0 255
-0.0049868445 -0.029385777 0.04708289 0 0 255
-0.004234557 -0.028961863 0.044130404 0 0 255
-0.0033894111 -0.028536996 0.042033866 0 0 255
-0.0026296533 -0.028109152 0.039057925 0 0 255
-0.0018587095 -0.027679194 0.036138315 159 0 96
-0.0010187101 -0.027248722 0.033860352 223 0 32
-0.00018434091 -0.026816357 0.031483065 255 0 0
0.00060783507 -0.026380723 0.028629709 255 0 0
0.0014871866 -0.025946138 0.026624933 255 0 0
0.0023063805 -0.025507474 0.023954706 255 0 0
0.0031964681 -0.025069879 0.021980736 255 0 0
0.003910888 -0.024621882 0.018098339 255 0 0
0.0048411726 -0.024182476 0.016461244 255 0 0
0.005821167 -0.023744663 0.015333044 255 0 0
0.0068210415 -0.023307296 0.014402747 255 0 0
0.0077669774 -0.022865433 0.012855581 255 0 0
0.0086049149 -0.022414351 0.010067874 255 0 0
0.0095875049 -0.021972241 0.0088623799 255 0 0
0.010709031 -0.021540729 0.0092214299 255 0 0
0.011829265 -0.021109542 0.0095776347 255 0 0
0.012969457 -0.02068064 0.01017559 255 0 0
0.014172267 -0.020258641 0.011530689 255 0 0
0.015318028 -0.019831976 0.012235445 255 0 0
0.016375374 -0.019396275 0.011888037 255 0 0
0.017544497 -0.018973382 0.012903374 255 0 0
0.018840546 -0.018567128 0.015514516 255 0 0
0.020153565 -0.018165745 0.018401327 255 0 0
0.021342775 -0.017750578 0.019790011 255 0 0
0.022652477 -0.017353941 0.022758851 255 0 0
0.023849146 -0.016943727 0.024334935 255 0 0
0.025099527 -0.016543537 0.026658513 255 0 0
0.026238218 -0.01612784 0.027556071 255 0 0
0.027489664 -0.015732164 0.029996414 255 0 0
0.028677881 -0.01532816 0.031640358 223 0 32
0.029957512 -0.014942669 0.034589842 64 0 191
0.031140216 -0.014542104 0.036262978 0 0 255
0.032375265 -0.01415388 0.038725473 0 0 255
0.033525143 -0.013750949 0.040031914 0 0 255
0.034762628 -0.013368434 0.042652681 0 0 255
0.035917606 -0.012970637 0.044130638 0 0 255
0.036970429 -0.012550955 0.044121552 0 0 255
0.038173035 -0.012167497 0.046390057 0 0 255
0.039299782 -0.011767893 0.047557753 0 0 255
0.040377975 -0.011357191 0.048001669 32 0 223
0.041450977 -0.010945809 0.048381548 32 0 223
0.042553283 -0.010543209 0.049245179 96 0 159
0.043584488 -0.01012125 0.048978645 0 0 255
0.042702317 -0.009124958 0.016967388 64 0 191
0.045549162 -0.0092461584 0.04677771 0 0 255
0.046333954 -0.0087429751 0.042249832 0 0 223
-0.016600184 -0.03508893 0.043593217 0 0 159
-0.014792127 -0.034638979 0.050181083 0 0 255
-0.013307257 -0.034204207 0.054002047 0 0 255
-0.012184115 -0.033783004 0.054640464 32 0 223
-0.011037372 -0.033361636 0.055505283 0 0 255
-0.009996173 -0.032943469 0.055421825 0 0 255
-0.0089966999 -0.032526117 0.054953851 0 0 255
-0.0080402289 -0.032109279 0.054079864 0 0 255
-0.007050192 -0.031691339 0.053507056 0 0 255
-0.0061567216 -0.031274058 0.05201181 0 0 255
-0.0052240114 -0.030855522 0.050866019 0 0 255
-0.004455951 -0.030436732 0.048115402 0 0 255
-0.003454545 -0.03001599 0.047583975 0 0 255
-0.0026625448 -0.029594082 0.044990528 0 0 255
-0.0018707948 -0.029170301 0.042348415 0 0 255
-0.0010796008 -0.028744502 0.039652709 0 0 255
-0.00014603608 -0.028318914 0.038343597 32 0 223
0.00076425343 -0.027891912 0.036774315 159 0 96
0.0015712444 -0.027461337 0.034114536 223 0 32
0.0024647675 -0.027031112 0.032303181 255 0 0
0.003276271 -0.026596833 0.02959805 255 0 0
0.0041948725 -0.026164336 0.027975617 255 0 0
0.004874818 -0.025720946 0.02376979 255 0 0
0.0058491752 -0.025287298 0.022660403 255 0 0
0.0068639726 -0.024854809 0.021972142 255 0 0
0.0077477414 -0.024414716 0.019826561 255 0 0
0.0087941457 -0.023982434 0.019450387 255 0 0
0.0098216441 -0.023548739 0.01885614 255 0 0
0.010844266 -0.023114232 0.018194059 255 0 0
0.011851113 -0.022678046 0.017338859 255 0 0
0.012972412 -0.022250183 0.017797159 255 0 0
0.014061919 -0.021820098 0.017893771 255 0 0
0.015223226 -0.021396693 0.01884879 255 0 0
0.016383704 -0.020974152 0.019817192 255 0 0
0.017502677 -0.020548383 0.020303978 255 0 0
0.01858695 -0.020119453 0.020378551 255 0 0
0.019729031 -0.01969724 0.021176221 255 0 0
0.020975741 -0.019288139 0.023309954 255 0 0
0.022243371 -0.018883849 0.025763771 255 0 0
0.023446992 -0.0184737 0.027453121 255 0 0
0.024590805 -0.018057121 0.028405664 255 0 0
0.02582393 -0.017654506 0.030565603 255 0 0
0.026941786 -0.017236829 0.031238932 191 0 64
0.028226269 -0.016846061 0.034186084 96 0 159
0.029427249 -0.016444838 0.036067478 0 0 255
0.030603115 -0.016041365 0.037651014 0 0 255
0.031819187 -0.01564692 0.039844483 0 0 255
0.033001717 -0.015248682 0.041619863 0 0 255
0.034106117 -0.014837357 0.04231659 0 0 255
0.035315365 -0.014448124 0.044571467 0 0 255
0.036473505 -0.014050798 0.046131887 0 0 255
0.037603378 -0.013649146 0.047312409 0 0 255
0.038697746 -0.013240897 0.047987431 0 0 255
0.039765608 -0.012827259 0.048274621 0 0 255
0.040841285 -0.012415975 0.048694063 32 0 223
0.041918758 -0.012005852 0.049158953 0 0 255
0.042957645 -0.01158608 0.049015362 0 0 255
0.043965358 -0.01115767 0.048358019 0 0 255
0.044930454 -0.01071633 0.046971481 0 0 255
0.045743957 -0.010228263 0.042973883 0 0 255
-0.015260203 -0.035727404 0.042279884 0 0 191
-0.013202203 -0.035262592 0.051170494 0 0 255
-0.011876151 -0.034831937 0.053616345 0 0 255
-0.010759954 -0.034410469 0.054198708 0 0 255
-0.0096365269 -0.033989206 0.054858819 0 0 255
-0.008543415 -0.033569328 0.055250961 0 0 255
-0.0075269109 -0.033151787 0.054937229 0 0 255
-0.0066052019 -0.032736186 0.053727545 0 0 255
-0.0073847929 -0.032352362 0.036346056 128 0 128
-0.0047114124 -0.03190181 0.051730677 32 0 223
-0.0037096019 -0.031482995 0.051238477 0 0 255
-0.0028983497 -0.031065512 0.048879508 0 0 255
-0.001945131 -0.030645618 0.047876481 0 0 255
-0.001185986 -0.030225322 0.04492807 0 0 255
-0.00026960982 -0.029803289 0.043503508 0 0 255
0.00062068598 -0.029380018 0.041788377 0 0 255
0.0014233504 -0.028954688 0.0391469 0 0 255
0.0024987021 -0.028531121 0.039270643 0 0 255
0.0033806318 -0.0281043 0.037382238 64 0 191
0.0042310618 -0.027675383 0.035128038 191 0 64
0.0050939959 -0.027245 0.032962088 255 0 0
0.0059104757 -0.026811615 0.030257473 255 0 0
0.0068957331 -0.02638193 0.029329287 255 0 0
0.0079102591 -0.02595276 0.028704088 255 0 0
0.008900621 -0.025522038 0.027800241 255 0 0
0.0098227942 -0.025087371 0.026118226 255 0 0
0.010898355 -0.024659488 0.0261348 255 0 0
0.011779837 -0.02422045 0.023936711 255 0 0
0.012810513 -0.023788989 0.023416648 255 0 0
0.01392313 -0.023362739 0.023843117 255 0 0
0.015092953 -0.022941099 0.02495753 255 0 0
0.016240491 -0.022518754 0.025830781 255 0 0
0.01731677 -0.022091378 0.025866665 255 0 0
0.018401941 -0.021664888 0.026014052 255 0 0
0.019475209 -0.021237472 0.026020439 255 0 0
0.02059293 -0.02081464 0.026583599 255 0 0
0.021815801 -0.020403588 0.028491676 255 0 0
0.023062222 -0.019997137 0.030748593 255 0 0
0.024247043 -0.019585615 0.032265246 255 0 0
0.025226142 -0.019149998 0.031125639 191 0 64
0.026490886 -0.018750813 0.033748277 96 0 159
0.027731746 -0.018351158 0.036119502 0 0 255
0.028859043 -0.017937435 0.03700649 0 0 255
0.030049628 -0.017534379 0.038792681 0 0 255
0.031135609 -0.017116636 0.03916641 0 0 255
0.03243437 -0.016734758 0.042561777 0 0 255
0.033543188 -0.0163236 0.043328628 0 0 255
0.034650866 -0.015913144 0.044101235 32 0 223
0.035849549 -0.015520904 0.046237994 0 0 255
0.037006613 -0.015122878 0.047815304 0 0 255
0.038075771 -0.01470863 0.048110552 0 0 255
0.039165974 -0.014299306 0.048736624 0 0 255
0.04024227 -0.013887751 0.04917001 0 0 255
0.041302979 -0.013473127 0.049370989 0 0 255
0.042349726 -0.013055504 0.049356457 0 0 255
0.043346088 -0.012625224 0.048523434 0 0 255
0.044332404 -0.012191432 0.047503028 0 0 255
0.045146946 -0.01170963 0.043567315 0 0 255
-0.013426854 -0.036342658 0.045363709 0 0 223
-0.011708321 -0.035889309 0.051319085 0 0 255
-0.010466009 -0.035460874 0.053033985 0 0 255
-0.0092978934 -0.035036724 0.054098289 0 0 255
-0.0081866365 -0.034615494 0.054655228 0 0 255
-0.0070869057 -0.034195069 0.055115096 0 0 255
-0.0060993177 -0.03377853 0.054525446 0 0 255
-0.0074289218 -0.03342681 0.031849176 64 0 191
-0.0040922328 -0.032943703 0.053626832 32 0 223
-0.0031200428 -0.032526564 0.052863043 0 0 255
-0.0022942878 -0.03211157 0.050653934 0 0 255
-0.0013578004 -0.031693436 0.049499266 0 0 255
-0.00051709061 -0.031275582 0.047369234 0 0 255
0.00046715708 -0.030855197 0.046646535 0 0 255
0.0014541401 -0.030434305 0.045937859 0 0 255
0.0023577192 -0.03001296 0.04436313 0 0 255
0.0031977468 -0.029590214 0.042100839 0 0 255
0.0040869969 -0.02916619 0.04031064 0 0 255
0.0050536743 -0.028741863 0.039305493 0 0 255
0.0059266607 -0.028315287 0.037282653 64 0 191
0.0068573095 -0.027888315 0.035840195 159 0 96
0.0076010199 -0.027455678 0.032336116 191 0 64
0.0087389825 -0.027031824 0.033098795 223 0 32
0.0097793285 -0.02660537 0.032794155 223 0 32
0.010754413 -0.026176203 0.031751614 255 0 0
0.011686354 -0.025744427 0.030199474 255 0 0
0.012745654 -0.025317518 0.030077133 255 0 0
0.013689269 -0.024884487 0.028612256 255 0 0
0.01474422 -0.024456648 0.028422846 255 0 0
0.015949871 -0.024038164 0.03001806 255 0 0
0.016928799 -0.023605866 0.028933344 255 0 0
0.018192075 -0.023193337 0.031272274 255 0 0
0.019215208 -0.022764232 0.030722471 255 0 0
0.020324768 -0.022341952 0.031235075 255 0 0
0.021466384 -0.021923074 0.032163605 255 0 0
0.022636533 -0.021507815 0.033478212 159 0 96
0.023763943 -0.021089597 0.034277406 64 0 191
0.024969978 -0.020680627 0.036121398 0 0 255
0.026141167 -0.020269539 0.03755378 0 0 255
0.027251879 -0.019852668 0.038217708 0 0 255
0.028434053 -0.019445626 0.039865855 0 0 255
0.029575251 -0.019034801 0.040997002 0 0 255
0.030686833 -0.018621089 0.041751243 0 0 255
0.031833783 -0.01821344 0.043022599 0 0 255
0.03296636 -0.017804926 0.044125542 0 0 255
0.034090798 -0.017396383 0.045143832 0 0 255
0.035262089 -0.016996969 0.046876613 0 0 255
0.036330264 -0.016581219 0.047132757 32 0 223
0.037460893 -0.016177362 0.048335332 32 0 223
0.038537536 -0.015764538 0.048753917 0 0 255
0.036063451 -0.014635574 -0.0056435228 32 0 223
0.040682472 -0.014938843 0.04950444 0 0 255
0.0417029 -0.014515436 0.049072783 0 0 255
0.042670932 -0.014079543 0.047784787 0 0 255
0.043583579 -0.01362909 0.045554243 32 0 223
0.044573981 -0.013195327 0.044550586 0 0 255
0.045054775 -0.012628601 0.03490207 0 0 128
-0.012037545 -0.03697855 0.044495892 0 0 191
-0.010370115 -0.036523834 0.050050311 0 0 255
-0.0090672914 -0.03609091 0.052335937 0 0 255
-0.0078506246 -0.035663601 0.053861901 0 0 255
-0.0067631551 -0.035242986 0.054202493 0 0 255
-0.0056864615 -0.034823041 0.054448292 0 0 255
-0.004612009 -0.034403492 0.054678697 0 0 255
-0.0036014253 -0.033986196 0.054298252 0 0 255
-0.002620053 -0.033569682 0.053628359 0 0 255
-0.0017076914 -0.033154618 0.052269321 32 0 223
-0.00071387313 -0.032736767 0.051695179 0 0 255
0.00022352145 -0.032319639 0.05054725 0 0 255
0.0011584435 -0.031901859 0.049354095 0 0 255
0.0020795229 -0.031483412 0.047998615 0 0 255
0.003008646 -0.031064009 0.046701223 0 0 255
0.0039884546 -0.030643417 0.045907363 0 0 255
0.0047972263 -0.030222557 0.043303117 0 0 255
0.0056237155 -0.029799839 0.040836409 0 0 255
0.0066083074 -0.029376404 0.040017676 0 0 255
0.0076448163 -0.028952893 0.039745491 0 0 255
0.0086741103 -0.028529173 0.039389689 0 0 255
0.0094615696 -0.028100625 0.036357947 0 0 255
0.010689365 -0.027680034 0.0381792 0 0 255
0.011619791 -0.027252685 0.036686331 64 0 191
0.012627115 -0.026826747 0.036040839 96 0 159
0.013586354 -0.026398527 0.034828991 128 0 128
0.0145586 -0.025969973 0.033743966 159 0 96
0.015599901 -0.025543801 0.033451911 159 0 96
0.016796961 -0.02512544 0.035008434 191 0 64
0.017927662 -0.024704771 0.035802711 96 0 159
0.019010749 -0.024281926 0.036037859 96 0 159
0.020061551 -0.02385718 0.035882715 32 0 223
0.021171235 -0.023436585 0.036459696 0 0 255
0.022283757 -0.023016926 0.037089638 0 0 255
0.023396887 -0.022597875 0.037741847 0 0 255
0.024492433 -0.02217795 0.038186848 0 0 255
0.025664974 -0.021765895 0.03965079 0 0 255
0.0267315 -0.021344496 0.039749347 0 0 255
0.027967025 -0.020941535 0.042118408 0 0 255
0.029115606 -0.020530976 0.043370001 0 0 255
0.030203568 -0.020114334 0.043821182 0 0 255
0.031249855 -0.019692993 0.043708421 0 0 255
0.032425631 -0.019289007 0.045419179 0 0 255
0.033495463 -0.018871831 0.045665521 0 0 255
0.034687988 -0.018473284 0.047697697 0 0 255
0.035757471 -0.018057661 0.047980879 0 0 255
0.036847379 -0.01764584 0.048579935 64 0 191
0.03793741 -0.017234704 0.049197592 32 0 223
0.039017592 -0.016822577 0.049687222 0 0 255
0.040034175 -0.016399084 0.049204499 32 0 223
0.041057099 -0.015976459 0.048811082 0 0 255
0.042005122 -0.015537973 0.047209114 32 0 223
0.042979378 -0.015103424 0.045988631 0 0 255
0.043913037 -0.014658478 0.04406324 0 0 255
0.04455575 -0.014143172 0.037210546 0 0 159
-0.010871789 -0.037629034 0.041557558 0 0 128
-0.0089619933 -0.037155673 0.049401764 0 0 255
-0.0076373802 -0.036719922 0.051916011 0 0 255
-0.006408006 -0.036290821 0.053579703 0 0 255
-0.0053690607 -0.035872269 0.053461887 0 0 255
-0.0041923644 -0.035447329 0.054666996 0 0 255
-0.003150777 -0.035029046 0.054586448 0 0 255
-0.0021269086 -0.034611546 0.054333303 0 0 255
-0.0011732832 -0.034196455 0.053384133 32 0 223
-0.00017236421 -0.033779163 0.052888811 0 0 255
0.00076289562 -0.033363599 0.051727351 0 0 255
0.0017538898 -0.032945767 0.051110446 0 0 255
0.0027601139 -0.032527294 0.050639689 0 0 255
0.0036987457 -0.03210979 0.049462609 0 0 255
0.0046390095 -0.031691507 0.048280429 0 0 255
0.0056099189 -0.031272002 0.047400173 0 0 255
0.0065742689 -0.030852044 0.046434809 0 0 255
0.0074503003 -0.030431688 0.044500966 0 0 255
0.0083772074 -0.030010043 0.043082982 0 0 255
0.0093983384 -0.029587759 0.042672448 0 0 255
0.010232436 -0.029163655 0.040179342 0 0 255
0.011392493 -0.02874192 0.041291006 0 0 255
0.012279802 -0.028316377 0.039337665 0 0 255
0.013435169 -0.027895272 0.040413909 0 0 255
0.01438475 -0.027469618 0.03913388 0 0 255
0.015437402 -0.027046205 0.039033465 0 0 255
0.016495567 -0.026622998 0.038997583 0 0 255
0.017574748 -0.026200624 0.039214343 0 0 255
0.018504359 -0.025771772 0.037629474 0 0 255
0.019736113 -0.025356924 0.039706469 0 0 255
0.02078281 -0.02493358 0.039543953 0 0 255
0.021872448 -0.024512799 0.039915767 0 0 255
0.023007881 -0.024095489 0.040879801 0 0 255
0.024059754 -0.023673072 0.040798593 0 0 255
0.025179353 -0.023255954 0.041594997 0 0 255
0.026311373 -0.022840645 0.042577289 0 0 255
0.027489129 -0.022430416 0.044193354 0 0 255
0.028611032 -0.022016447 0.045101736 0 0 255
0.029692439 -0.021599222 0.04548087 0 0 255
0.030688643 -0.021173244 0.044698015 0 0 255
0.031912617 -0.020772772 0.047081582 0 0 255
0.032993551 -0.020357357 0.047505055 0 0 255
0.034081455 -0.019943256 0.048041306 0 0 255
0.035151433 -0.019527333 0.048332799 0 0 255
0.032219484 -0.018537305 -0.010441707 96 0 159
0.037347253 -0.018705186 0.049785588 32 0 223
0.03839073 -0.018286742 0.049720727 0 0 255
0.039442021 -0.017869567 0.049775477 0 0 255
0.040421501 -0.017440017 0.048713356 0 0 255
0.041392829 -0.017007917 0.047493234 0 0 255
0.04239247 -0.016580001 0.046694599 0 0 255
0.043196201 -0.016111817 0.0426745 0 0 255
-0.010128509 -0.038311575 0.034624275 128 0 96
-0.0075655691 -0.037788939 0.048631001 0 0 255
-0.0062748129 -0.037353393 0.050852776 0 0 255
-0.0049877488 -0.036919542 0.053080995 0 0 255
-0.0038661938 -0.036496289 0.053755157 32 0 223
-0.0027352879 -0.03607313 0.054535143 0 0 255
-0.0016826696 -0.035654318 0.054563507 32 0 223
-0.0023936636 -0.035316337 0.037134446 64 0 191
0.00033285501 -0.034820735 0.053729571 0 0 255
0.0012962586 -0.034405377 0.052856456 32 0 223
0.0023455916 -0.033986412 0.052842803 0 0 255
0.0033586642 -0.033568665 0.052458614 0 0 255
0.0043423437 -0.033151567 0.051762186 0 0 255
0.0052784779 -0.032735202 0.050556645 0 0 255
0.0062234947 -0.032317836 0.049422622 0 0 255
0.0072050472 -0.031899136 0.048657943 0 0 255
0.008021865 -0.031482197 0.046101 0 0 255
0.0090665966 -0.031061206 0.045979682 0 0 255
0.010117195 -0.030640207 0.045923803 0 0 255
0.011152319 -0.030219223 0.045694742 0 0 255
0.012193177 -0.029798167 0.045527846 0 0 255
0.013127539 -0.029376315 0.044148333 0 0 255
0.014147511 -0.02895442 0.043724421 0 0 255
0.015094833 -0.028531145 0.042449262 0 0 255
0.01607129 -0.028107498 0.041490171 0 0 255
0.017177083 -0.027686447 0.042049594 0 0 255
0.018139001 -0.027261613 0.040894028 0 0 255
0.01939217 -0.026845952 0.043253005 0 0 255
0.020386353 -0.026422089 0.042485259 0 0 255
0.021430837 -0.025999928 0.04232797 0 0 255
0.022580609 -0.025582893 0.043492384 0 0 255
0.02369323 -0.025164902 0.04421398 0 0 255
0.024748914 -0.024744166 0.044221796 0 0 255
0.025825674 -0.024324935 0.044507898 0 0 255
0.026965633 -0.023910532 0.045636613 0 0 255
0.028048828 -0.023492798 0.046036124 0 0 255
0.029191289 -0.023080548 0.047252614 0 0 255
0.030271355 -0.022663783 0.047645427 0 0 255
0.031368032 -0.022249065 0.048281126 0 0 255
0.032464933 -0.021835141 0.048939701 0 0 255
0.033506919 -0.021415858 0.048835099 0 0 255
0.034575716 -0.020999672 0.049117111 0 0 255
0.035654519 -0.020585062 0.049555469 32 0 223
0.036728054 -0.020170292 0.049931616 0 0 255
0.037764803 -0.019750986 0.049767543 0 0 255
0.038764637 -0.019326136 0.049035776 128 0 128
0.039767016 -0.018901045 0.048325043 32 0 223
0.040777545 -0.018476631 0.047724649 0 0 255
0.041638006 -0.018026169 0.044716444 0 0 255
0.042419985 -0.01755856 0.040349841 0 0 223
-0.016156236 -0.039866336 -0.025601732 255 0 0
-0.0086009018 -0.038945414 0.034905408 223 0 32
-0.0062952926 -0.038431864 0.046648283 32 0 223
-0.0049440125 -0.037990175 0.049461246 0 0 255
-0.0035471488 -0.037547354 0.052768566 0 0 255
-0.0024807833 -0.037126973 0.05291402 0 0 255
-0.0013425801 -0.036702596 0.053770803 0 0 255
-0.00024854016 -0.036281217 0.054206338 0 0 255
0.00081445626 -0.035861831 0.054340627 0 0 255
0.00010860551 -0.035528686 0.036569349 64 0 191
0.0028402209 -0.035027992 0.053596761 32 0 223
0.0038562289 -0.034610681 0.053248942 0 0 255
0.0048520886 -0.034193981 0.052686106 0 0 255
0.0058654645 -0.033776313 0.052298982 32 0 223
0.0067253136 -0.033363272 0.050272919 0 0 255
0.0077556171 -0.03294412 0.05003871 0 0 255
0.0087821689 -0.032525036 0.049760383 0 0 255
0.0097802328 -0.032106325 0.049166828 0 0 255
0.010777556 -0.031687312 0.048554435 0 0 255
0.011801507 -0.031267595 0.048228566 0 0 255
0.012808324 -0.030847825 0.047703948 0 0 255
0.013680384 -0.030428218 0.045630958 64 0 191
0.014752321 -0.030007266 0.045822639 0 0 255
0.015877228 -0.029586766 0.046638511 0 0 255
0.016885592 -0.029165875 0.046099775 0 0 255
0.017913098 -0.028744904 0.045778748 0 0 255
0.018933844 -0.028323619 0.045371659 0 0 255
0.020009609 -0.027903376 0.045628026 0 0 255
0.021124769 -0.027484562 0.04638062 0 0 255
0.022127438 -0.027062615 0.045745742 0 0 255
0.023249393 -0.026644863 0.046606429 0 0 255
0.024289232 -0.026224228 0.046438154 0 0 255
0.025383262 -0.025806252 0.046971526 0 0 255
0.026415333 -0.025385411 0.046707798 0 0 255
0.027526403 -0.024969153 0.047487427 0 0 255
0.028638745 -0.02455369 0.048305135 0 0 255
0.02969558 -0.024135141 0.048392378 0 0 255
0.030796785 -0.023720158 0.049093854 0 0 255
0.03188026 -0.023304399 0.049568795 32 0 223
0.032910988 -0.022884389 0.049313769 96 0 159
0.034015778 -0.02247137 0.050113749 0 0 255
0.035063244 -0.022053313 0.050108448 0 0 255
0.032516662 -0.021238843 -0.0028067052 128 0 128
0.037159435 -0.021217501 0.050117653 0 0 255
0.038156781 -0.020793432 0.049360007 0 0 255
0.039154429 -0.020368733 0.048588589 0 0 255
0.040152781 -0.019943411 0.04780484 0 0 255
0.040905785 -0.019481145 0.043125778 0 0 255
0.04146298 -0.018983625 0.035167862 0 0 159
-0.01686633 -0.041437212 -0.02593286 223 0 0
-0.0094187493 -0.040449101 0.033243563 255 0 0
-0.0081705749 -0.040007301 0.034922138 255 0 0
-0.007023497 -0.039574735 0.035670452 223 0 32
-0.0050787898 -0.039081328 0.04410167 64 0 191
-0.0034449182 -0.038616162 0.049672339 0 0 255
-0.0021012519 -0.038174946 0.052505091 0 0 255
-0.0010302737 -0.037754118 0.052698649 0 0 255
7.4512223e-05 -0.037331264 0.053233467 0 0 255
0.0011563242 -0.036910228 0.053549778 0 0 255
0.0022574123 -0.036488276 0.054068938 0 0 255
0.0015380868 -0.036166947 0.035919368 191 0 64
0.0025201198 -0.035745945 0.035048321 64 0 191
0.0035146198 -0.035323773 0.03429202 32 0 223
0.0063453927 -0.034818798 0.052924797 0 0 255
0.0073598102 -0.034401424 0.052547444 0 0 255
0.008375749 -0.033983838 0.052181546 0 0 255
0.0093885288 -0.033566106 0.051774971 0 0 255
0.010386216 -0.033148594 0.051196303 0 0 255
0.011379884 -0.032730903 0.050562058 0 0 255
0.012425578 -0.032311611 0.050501008 0 0 255
0.013431569 -0.031893089 0.04999055 0 0 255
0.014441884 -0.031474225 0.049519971 0 0 255
0.015448735 -0.031055098 0.04900175 0 0 255
0.016416635 -0.030635918 0.048016444 0 0 255
0.017438756 -0.030215977 0.047655158 0 0 255
0.01853217 -0.029795982 0.048141111 0 0 255
0.019604035 -0.029376319 0.048380036 0 0 255
0.020603722 -0.028956015 0.04773999 0 0 255
0.021707654 -0.028537026 0.048381284 0 0 255
0.022779236 -0.028117958 0.048633642 0 0 255
0.023849303 -0.027699053 0.048874706 0 0 255
0.024905892 -0.02728002 0.04895037 0 0 255
0.025918106 -0.02685947 0.048453163 0 0 255
0.027036186 -0.026443072 0.049339741 0 0 255
0.0281027 -0.02602502 0.049563129 0 0 255
0.029173352 -0.025607493 0.049851034 0 0 255
0.030194515 -0.025187271 0.049470186 64 0 191
0.031272165 -0.024770543 0.049865529 0 0 255
0.032366317 -0.024355402 0.050505288 0 0 255
0.033394314 -0.023935808 0.050223429 32 0 223
0.034445126 -0.023517922 0.050265398 0 0 255
0.035482828 -0.023098916 0.050117318 0 0 255
0.036493439 -0.022677297 0.049569704 0 0 255
0.037475236 -0.022252267 0.048575025 0 0 255
0.038532015 -0.021834683 0.048697192 0 0 255
0.039432652 -0.021398781 0.046413124 0 0 255
0.040281091 -0.02095413 0.043246046 0 0 255
-0.016191287 -0.042534288 -0.023850588 255 0 0
-0.0088866353 -0.041502915 0.034211218 255 0 0
-0.0077002356 -0.041065414 0.035320766 255 0 0
-0.0065699061 -0.040633593 0.035915196 255 0 0
-0.0054681166 -0.04020457 0.036246248 255 0 0
-0.0039026262 -0.03973737 0.041101176 128 0 128
-0.0021654346 -0.039259266 0.047733802 0 0 255
-0.00088326191 -0.038820367 0.049978312 0 0 255
0.00032149069 -0.038388681 0.051492546 0 0 255
0.0014743151 -0.037961707 0.052511476 0 0 255
0.0025115886 -0.037543207 0.052373011 0 0 255
0.0036284546 -0.037119519 0.053053379 0 0 255
0.0047404701 -0.036696691 0.053697895 0 0 255
0.0057503539 -0.036280245 0.053284671 0 0 255
0.0068449304 -0.035858922 0.053763147 0 0 255
0.0078725806 -0.03544141 0.053536598 0 0 255
0.0026371621 -0.035324089 -0.014479096 96 0 159
0.0098993387 -0.03460744 0.052761775 32 0 223
0.010920804 -0.034189813 0.05245401 0 0 255
0.011924249 -0.033772681 0.051940341 0 0 255
0.0129652 -0.03335404 0.051841874 0 0 255
0.013989108 -0.032935884 0.051548339 0 0 255
0.015005291 -0.032517791 0.051161557 0 0 255
0.016003011 -0.032099873 0.050553713 0 0 255
0.01696966 -0.031682111 0.049567364 32 0 223
0.018072028 -0.031261921 0.050177362 32 0 223
0.019105164 -0.030842934 0.049969945 0 0 255
0.020091858 -0.030423924 0.049193997 0 0 255
0.021243151 -0.030004615 0.050430402 0 0 255
0.022289619 -0.029585676 0.050390374 0 0 255
0.023343123 -0.029166866 0.050441418 0 0 255
0.024385003 -0.028747996 0.050346766 32 0 223
0.02544062 -0.028329385 0.050428979 0 0 255
0.026484272 -0.027910661 0.050360173 0 0 255
0.02752219 -0.027491713 0.050215002 0 0 255
0.028579274 -0.027073396 0.050324708 0 0 255
0.029643228 -0.026655525 0.05053547 0 0 255
0.030701216 -0.026237695 0.050668363 64 0 191
0.031753093 -0.025819702 0.050723679 32 0 223
0.032774363 -0.025400011 0.050352067 0 0 255
0.033821788 -0.024981797 0.050344314 0 0 255
0.034818016 -0.024560025 0.049598891 32 0 223
0.035813611 -0.024137596 0.048824389 0 0 255
0.036863059 -0.02371911 0.048835278 0 0 255
0.037833199 -0.02329346 0.047650386 0 0 255
0.03877645 -0.022864193 0.046022523 0 0 255
0.039493006 -0.02240973 0.040829193 0 0 223
-0.016914852 -0.04410518 -0.024314689 223 0 0
-0.0097191595 -0.043012638 0.032418974 255 0 0
-0.0084102964 -0.042560495 0.034660596 255 0 0
-0.0073065748 -0.042130291 0.03499246 255 0 0
-0.0061699273 -0.041697141 0.03564731 255 0 0
-0.0050724768 -0.041268129 0.035937075 255 0 0
-0.0039863414 -0.040840406 0.036122743 255 0 0
-0.0029111665 -0.040413793 0.036204904 223 0 32
-0.0012806501 -0.039939072 0.0418192 128 0 128
0.00031662392 -0.039470479 0.047207609 0 0 255
0.0014885138 -0.039039578 0.048384406 0 0 255
0.0026558724 -0.038609836 0.049539141 0 0 255
0.0038967885 -0.038175326 0.051478416 0 0 255
0.005024544 -0.037750185 0.052275181 0 0 255
0.0060588857 -0.037331969 0.05210508 0 0 255
0.0072237113 -0.036905181 0.053323004 0 0 255
0.008294289 -0.036485009 0.05355363 32 0 223
0.0093353819 -0.036066849 0.053470619 0 0 255
0.010363513 -0.035649367 0.053245332 0 0 255
0.011413197 -0.035230625 0.053255096 32 0 223
0.01241904 -0.034814097 0.052776564 0 0 255
0.01347068 -0.034395281 0.052807722 0 0 255
0.014505551 -0.03397724 0.052649822 0 0 255
0.015521848 -0.033559799 0.052275732 0 0 255
0.016543563 -0.033142015 0.051958676 0 0 255
0.017542338 -0.032724738 0.051364854 0 0 255
0.018597506 -0.032305691 0.051434692 0 0 255
0.019636534 -0.031887121 0.05131356 0 0 255
0.020699494 -0.031468134 0.051483143 0 0 255
0.021731468 -0.031049665 0.051275469 0 0 255
0.022757323 -0.030631201 0.050990142 0 0 255
0.018638391 -0.030221472 -0.014478886 64 0 191
0.024859931 -0.029793914 0.051055077 0 0 255
0.025917947 -0.029375458 0.05117866 32 0 223
0.02697316 -0.028957136 0.051271047 0 0 255
0.027981063 -0.028538078 0.050737809 64 0 191
0.02901724 -0.028119396 0.050576132 128 0 128
0.030096266 -0.027701825 0.050995514 0 0 255
0.027542131 -0.027160672 0.001248571 64 0 191
0.03213397 -0.026863165 0.050191771 64 0 191
0.033151727 -0.02644342 0.049761739 0 0 255
0.034170739 -0.026023371 0.049339309 0 0 255
0.035034843 -0.025594212 0.046655029 0 0 255
0.036066562 -0.025173465 0.046370056 0 0 255
0.037048128 -0.024749044 0.045331337 0 0 255
0.037902907 -0.024313979 0.042339992 0 0 255
0.038568188 -0.023860473 0.036349263 0 0 159
-0.016200261 -0.045191143 -0.021862753 255 0 0
-0.0091387527 -0.044059396 0.033835504 255 0 0
-0.0079666562 -0.043620758 0.034803972 255 0 0
-0.0068376474 -0.043187443 0.035381183 255 0 0
-0.005731869 -0.042756978 0.035745572 255 0 0
-0.0046457234 -0.042328827 0.03592784 255 0 0
-0.0035802952 -0.041902982 0.035911806 255 0 0
-0.0025160646 -0.041477274 0.035885725 255 0 0
-0.0014557604 -0.041051935 0.035821192 255 0 0
-0.00042438172 -0.040629342 0.035466116 223 0 32
0.0007878333 -0.040190179 0.036946006 159 0 96
0.0025814448 -0.039701 0.044435088 32 0 223
0.0039194804 -0.039254829 0.047340751 0 0 255
0.00524153 -0.038811706 0.050139181 0 0 255
0.0064106341 -0.038382377 0.051374719 0 0 255
0.007552173 -0.037955869 0.052342042 0 0 255
0.0086003589 -0.037536837 0.052323308 0 0 255
0.0096907802 -0.037114836 0.052765664 0 0 255
0.010737198 -0.036696136 0.052734815 0 0 255
0.011800589 -0.036276303 0.052893527 0 0 255
0.012848338 -0.03585761 0.052881222 0 0 255
0.013886813 -0.035439465 0.052765459 0 0 255
0.014929777 -0.035021093 0.052700639 32 0 223
0.015970692 -0.034602791 0.052612979 32 0 223
0.011651529 -0.034416169 -0.010460414 64 0 191
0.01805005 -0.033766352 0.052407552 0 0 255
0.01905106 -0.033349458 0.051840007 0 0 255
0.020111887 -0.0329304 0.051987886 32 0 223
0.021175165 -0.032511435 0.052171893 0 0 255
0.022208458 -0.032093294 0.05198855 0 0 255
0.023230352 -0.031675365 0.051660787 32 0 223
0.024262965 -0.031257104 0.051463261 32 0 223
0.025322767 -0.030838424 0.051613029 0 0 255
0.026359564 -0.030420128 0.05146987 0 0 255
0.027397294 -0.030001733 0.051336102 0 0 255
0.024433672 -0.029560758 -0.0022711998 64 0 191
0.029420221 -0.029164348 0.050356232 64 0 191
0.030436967 -0.028745268 0.049922261 32 0 223
0.031466033 -0.02832618 0.04965223 0 0 255
0.032482713 -0.027906584 0.049201149 0 0 255
0.033375621 -0.027482746 0.046978883 0 0 255
0.034400515 -0.02706217 0.046604272 0 0 255
0.035273273 -0.026634576 0.043993164 0 0 255
0.036083117 -0.026201731 0.0403799 0 0 191
-0.016932676 -0.046761729 -0.022418318 223 0 0
-0.0099134324 -0.045566309 0.032587454 255 0 0
-0.0087201297 -0.045123305 0.03373947 255 0 0
-0.0075548855 -0.044684455 0.034646314 255 0 0
-0.0072247856 -0.0443459 0.027571337 255 0 0
-0.0053431615 -0.043822221 0.035367463 255 0 0
-0.0042386092 -0.043391693 0.035727691 255 0 0
-0.0031687156 -0.042965163 0.035754815 255 0 0
-0.0021118664 -0.042540204 0.035654657 255 0 0
-0.0010546451 -0.042115156 0.035557762 255 0 0
-0.00072145305 -0.041764982 0.02812914 255 0 0
0.001015442 -0.041269492 0.034910124 255 0 0
0.0020013046 -0.040851273 0.03407244 255 0 0
0.0029533703 -0.040435899 0.032867979 191 0 64
0.004979529 -0.039921243 0.042945284 32 0 191
0.0064737806 -0.039459683 0.047572069 0 0 255
0.0076975562 -0.039024077 0.049388781 0 0 255
0.0089069242 -0.038590748 0.051088344 0 0 255
0.0099914055 -0.038168427 0.05145587 0 0 255
0.011044023 -0.037748747 0.051481608 0 0 255
0.012084715 -0.037330024 0.051374145 0 0 255
0.013160686 -0.036908835 0.051665921 0 0 255
0.014143684 -0.036493972 0.050904263 32 0 223
0.015289265 -0.036068633 0.052005224 32 0 223
0.016323844 -0.035650577 0.051837105 0 0 255
0.017366242 -0.035231978 0.051758815 32 0 223
0.018397221 -0.034813996 0.051543582 0 0 255
0.019480623 -0.034393445 0.051960483 0 0 255
0.020471025 -0.033977192 0.051251668 32 0 223
0.021513142 -0.033558562 0.051167186 0 0 255
0.02258159 -0.033139035 0.051411476 0 0 255
0.02360264 -0.032721143 0.051066943 0 0 255
0.024647107 -0.032302473 0.051012926 32 0 223
0.025605161 -0.031885691 0.049843308 0 0 255
0.026665363 -0.03146638 0.049983904 0 0 255
0.027715348 -0.031047396 0.049995862 0 0 255
0.028749269 -0.030628586 0.049794715 0 0 255
0.029767958 -0.030209767 0.049383778 0 0 255
0.030805191 -0.029790673 0.049218792 0 0 255
0.031672768 -0.029370142 0.046684761 0 0 255
0.032520961 -0.028947463 0.043813229 0 0 255
0.033546619 -0.028526058 0.043407988 0 0 255
0.034121107 -0.028093047 0.03644345 0 0 128
-0.016218133 -0.047840316 -0.019964689 255 0 0
-0.0094802463 -0.046629507 0.032623742 255 0 0
-0.0088594118 -0.046261858 0.028373921 255 0 0
-0.0071304776 -0.045746714 0.034608796 255 0 0
-0.0060520084 -0.045318648 0.034703508 255 0 0
-0.0049220296 -0.044884078 0.035301931 255 0 0
-0.0038306876 -0.044454683 0.035534672 255 0 0
-0.0027643868 -0.044028468 0.03552499 255 0 0
-0.0017211278 -0.043605078 0.035287935 255 0 0
-0.00066696107 -0.043180306 0.0351578 255 0 0
0.00036837903 -0.042757638 0.034834415 255 0 0
0.0013946004 -0.042335819 0.034414645 255 0 0
0.0023829392 -0.041918021 0.033595536 255 0 0
0.0032898933 -0.041508269 0.031910237 159 0 0
0.0072148722 -0.040158026 0.039640699 0 0 159
0.0088617457 -0.039679669 0.046013024 0 0 255
0.010023248 -0.039248493 0.047179971 0 0 255
0.011139397 -0.038821965 0.047866583 0 0 255
0.01219866 -0.038400702 0.047930889 0 0 255
0.013351767 -0.037971981 0.049064945 0 0 255
0.01441897 -0.037550576 0.049238857 0 0 255
0.0155551 -0.037124313 0.050217573 0 0 255
0.016627019 -0.036703177 0.05046761 0 0 255
0.017676396 -0.036283694 0.050458409 0 0 255
0.01876911 -0.035861582 0.050969094 0 0 255
0.019771274 -0.035445116 0.050396703 32 0 223
0.020841785 -0.035024703 0.050650824 0 0 255
0.021880815 -0.03460604 0.050522815 0 0 255
0.022862177 -0.034189995 0.049669109 0 0 255
0.023900764 -0.033771049 0.049524859 0 0 255
0.024979495 -0.033350576 0.049894743 0 0 255
0.025965495 -0.032933448 0.049070168 0 0 255
0.026934646 -0.032516386 0.048005112 0 0 255
0.027961066 -0.032097165 0.047679596 0 0 255
0.028905593 -0.031679403 0.046241842 0 0 255
0.029953204 -0.03125919 0.046180841 0 0 255
0.03087646 -0.030840166 0.044396847 0 0 255
0.031606253 -0.030420737 0.039854351 0 0 191
-0.016907785 -0.04940341 -0.02013444 223 0 0
-0.010294693 -0.04814643 0.031013921 255 0 0
-0.0090212794 -0.047688786 0.032902528 255 0 0
-0.0079408102 -0.047259647 0.032997735 255 0 0
-0.0067359689 -0.04681313 0.034285627 255 0 0
-0.0056491755 -0.046383623 0.03445949 255 0 0
-0.0045263558 -0.045949288 0.034988374 255 0 0
-0.0043669562 -0.045643892 0.026061242 255 0 0
-0.0023793639 -0.045094609 0.035102695 255 0 0
-0.0013233438 -0.044669658 0.034989387 255 0 0
-0.00028000597 -0.044246204 0.034747351 255 0 0
0.00074390252 -0.043825056 0.034303647 255 0 0
0.0017531678 -0.043405578 0.03370329 255 0 0
0.0027115766 -0.042991728 0.032563493 255 0 0
0.011822041 -0.039524015 0.038925435 0 0 128
0.013011246 -0.03908826 0.040381849 0 0 159
0.014197835 -0.038653668 0.041839872 0 0 223
0.015313957 -0.038225871 0.042510454 0 0 223
0.016598683 -0.037784964 0.045183111 0 0 255
0.017776852 -0.037353955 0.046649475 0 0 255
0.018814789 -0.036934175 0.046462208 0 0 255
0.019967621 -0.036506306 0.047672022 0 0 255
0.020807443 -0.036099862 0.045054771 0 0 255
0.02193586 -0.035673931 0.045976583 0 0 255
0.022982819 -0.035253417 0.045893263 0 0 255
0.023963099 -0.034836486 0.044961348 0 0 255
0.024977366 -0.034417305 0.044446088 0 0 255
0.025903342 -0.034001857 0.042766839 0 0 223
0.026802743 -0.033586483 0.040698174 0 0 191
0.027675973 -0.033170659 0.038227767 0 0 191
0.028642725 -0.032750264 0.036967728 0 0 128
-0.016290965 -0.05048956 -0.018581809 255 0 0
-0.0098996032 -0.049216971 0.030689228 255 0 0
-0.0086059161 -0.048754141 0.032772958 255 0 0
-0.0074842698 -0.048318565 0.03325966 255 0 0
-0.0072014737 -0.048009071 0.025706287 255 0 0
-0.0061819851 -0.047587182 0.025150819 255 0 0
-0.0041350555 -0.047015723 0.034630124 255 0 0
-0.003054159 -0.046587013 0.034757096 255 0 0
-0.0019881355 -0.046160541 0.034739777 255 0 0
-0.00094265351 -0.045736957 0.034517471 255 0 0
0.0001062921 -0.045312852 0.034328118 255 0 0
0.0011372735 -0.044890996 0.033952538 255 0 0
0.0021119183 -0.044476472 0.032988556 255 0 0
0.0029472916 -0.04407927 0.030553879 159 0 0
0.019624894 -0.037616417 0.03832629 0 0 128
0.020575322 -0.037201025 0.036960099 0 0 128
-0.01675126 -0.052012395 -0.016645648 223 0 0
-0.010672861 -0.050732825 0.029474569 255 0 0
-0.009348223 -0.050262071 0.031826768 255 0 0
-0.0082020722 -0.049821492 0.032533884 255 0 0
-0.007076533 -0.049384672 0.033058725 255 0 0
-0.0059894435 -0.048954245 0.0332238 255 0 0
-0.0048436518 -0.048514746 0.033964802 255 0 0
-0.0037864202 -0.048089311 0.033851974 255 0 0
-0.0026976732 -0.047659028 0.034050047 255 0 0
-0.0016626577 -0.047237042 0.033717625 255 0 0
-0.00057413441 -0.046806935 0.033919949 255 0 0
0.00041056745 -0.046392102 0.033070359 255 0 0
0.0014513109 -0.04596892 0.032782771 255 0 0
0.0024029154 -0.045558203 0.031566411 255 0 0
-0.011436149 -0.052250005 0.028365832 255 0 0
-0.010131622 -0.051779523 0.030507851 255 0 0
-0.0090012318 -0.051340494 0.031050025 255 0 0
-0.0078017754 -0.050889861 0.032260165 255 0 0
-0.006680496 -0.050453059 0.032743935 255 0 0
-0.0055543813 -0.05001574 0.033285752 255 0 0
-0.0044837175 -0.049587946 0.033297148 255 0 0
-0.0033842619 -0.049155425 0.033594999 255 0 0
-0.0023163231 -0.04872825 0.033585574 255 0 0
-0.0012881861 -0.048307452 0.03317916 255 0 0
-0.00022409557 -0.047880847 0.033130918 255 0 0
0.00075559877 -0.047467437 0.032220326 255 0 0
0.0017735715 -0.04704776 0.031689461 255 0 0
-0.016714778 -0.054628611 -0.014273627 223 0 0
-0.011079323 -0.053331248 0.027677724 255 0 0
-0.0097573232 -0.052855145 0.029985756 255 0 0
