ply
format ascii 1.0
comment PCL generated
element vertex 1022
property float x
property float y
property float z
property uchar red
property uchar green
property uchar blue
element camera 0
property float view_px
property float view_py
property float view_pz
property float x_axisx
property float x_axisy
property float x_axisz
property float y_axisx
property float y_axisy
property float y_axisz
property float z_axisx
property float z_axisy
property float z_axisz
property float focal
property float scalex
property float scaley
property float centerx
property float centery
property int viewportx
property int viewporty
property float k1
property float k2
end_header
-0.026146598 0.0003525588 0.0049096872 255 0 0
-0.025465094 -4.431351e-06 0.003373564 255 0 0
-0.025810286 1.9000039e-06 0.0023354073 255 0 0
-0.02570706 -0.00015068318 0.0010776221 255 0 0
-0.025522532 -0.00033218224 -0.00022152447 255 0 0
-0.025004188 -0.00063222722 -0.0016864958 255 0 0
-0.025275849 -0.00065231067 -0.0027644651 255 0 0
-0.025140947 -0.00081668701 -0.0040439526 255 0 0
-0.0249923 -0.00098603719 -0.0053317011 255 0 0
-0.024903869 -0.0011342725 -0.006591138 255 0 0
-0.02487517 -0.0012613272 -0.0078222798 255 0 0
-0.025095766 -0.0012999538 -0.0089300536 255 0 0
-0.024969533 -0.0014619296 -0.010212183 255 0 0
-0.025112661 -0.0015282858 -0.011360661 255 0 0
0.020427017 -0.017844232 -0.035514552 255 0 0
-0.025151053 -0.0017493345 -0.013785048 255 0 0
-0.025134193 -0.0018729081 -0.015017292 255 0 0
-0.025036423 -0.0020254259 -0.01629176 255 0 0
-0.025191439 -0.0020880043 -0.017439127 255 0 0
-0.025046824 -0.0022574435 -0.018740138 255 0 0
-0.025226077 -0.0023115783 -0.019877065 255 0 0
-0.025323706 -0.0023948746 -0.021056624 255 0 0
-0.025182439 -0.0025634805 -0.022359956 255 0 0
-0.025306888 -0.0026374615 -0.023527939 255 0 0
-0.02538497 -0.0027280347 -0.024720732 255 0 0
-0.025548968 -0.0027880871 -0.025870038 255 0 0
-0.025615467 -0.0028829642 -0.027070696 255 0 0
-0.025545003 -0.0030269295 -0.028343877 255 0 0
-0.025825959 -0.0030454115 -0.02943489 255 0 0
-0.025844527 -0.0031576755 -0.030663665 255 0 0
-0.025807062 -0.0032902483 -0.031923238 255 0 0
-0.025970703 -0.0033509179 -0.033078089 255 0 0
-0.026169166 -0.0033991975 -0.034215588 255 0 0
-0.02621999 -0.0035004108 -0.035431705 255 0 0
-0.026355233 -0.0035714819 -0.03660427 255 0 0
-0.026409861 -0.0036715367 -0.03782041 255 0 0
-0.026587553 -0.0037275795 -0.038972214 255 0 0
-0.026824061 -0.0037626063 -0.040093288 255 0 0
0.025012018 -0.022479627 -0.069098093 255 0 0
-0.027209902 -0.003864099 -0.042384095 255 0 0
0.024647748 -0.022602435 -0.071542025 255 0 0
-0.027540876 -0.0039855698 -0.044707336 255 0 0
-0.027825613 -0.0040035802 -0.045805827 255 0 0
-0.028073778 -0.0040347758 -0.046924416 255 0 0
-0.028208094 -0.00410695 -0.048105497 255 0 0
0.024341598 -0.023128374 -0.077995747 255 0 0
-0.028657829 -0.0041864305 -0.05037158 255 0 0
-0.028886737 -0.0042248229 -0.051503375 255 0 0
-0.029168472 -0.0042442651 -0.052606728 255 0 0
-0.029402718 -0.0042807925 -0.053736717 255 0 0
-0.029655108 -0.0043108822 -0.05485741 255 0 0
-0.029897725 -0.0043445947 -0.055984061 255 0 0
-0.029991457 -0.0044319639 -0.05719376 255 0 0
-0.030270681 -0.0044525708 -0.058301374 255 0 0
-0.030378478 -0.0045350706 -0.059505112 255 0 0
-0.03052545 -0.004603534 -0.060687859 255 0 0
-0.03050358 -0.0047330619 -0.061966039 255 0 0
-0.030876452 -0.0047200788 -0.063024029 255 0 0
-0.030897656 -0.0048342189 -0.064280115 255 0 0
-0.031007519 -0.0049164915 -0.065487392 255 0 0
-0.030723268 -0.0051412992 -0.066918425 255 0 0
-0.030834913 -0.0052231029 -0.068127185 255 0 0
-0.030807395 -0.0053553698 -0.069416076 255 0 0
-0.030922629 -0.0054361182 -0.070624895 255 0 0
-0.030843511 -0.005587324 -0.071945682 255 0 0
-0.030927416 -0.0056796027 -0.07317476 255 0 0
-0.030912582 -0.0058077397 -0.074461393 255 0 0
-0.030953214 -0.0059159645 -0.075717628 255 0 0
-0.030934393 -0.0060458258 -0.077009171 255 0 0
-0.021885552 -0.0094521949 -0.083519638 255 0 0
-0.010567445 -0.013684836 -0.09137091 159 0 0
0.0059847939 0.0016211504 0.10921884 0 0 255
0.0027444139 0.0026176702 0.10925984 0 0 255
-0.00098239887 0.0037807247 0.10948403 0 0 255
-0.0056265146 0.0052574715 0.11004991 0 0 255
-0.0087459125 0.0062148198 0.11006875 0 0 255
-0.0094893947 0.0063616484 0.10922294 0 0 255
-0.0096910344 0.0063236314 0.10817885 0 0 255
-0.009772365 0.0062444047 0.10708964 0 0 255
-0.0101053 0.0062511093 0.1060928 0 0 255
-0.0097957486 0.0060381023 0.10485701 0 0 255
-0.010310062 0.0061067217 0.10392649 0 0 255
-0.010445336 0.006045681 0.10285436 0 0 255
-0.010489314 0.005953263 0.10174726 0 0 255
-0.010496799 0.0058483495 0.10062563 0 0 255
-0.01085592 0.0058636484 0.099635452 0 0 255
-0.010844376 0.0057520145 0.098504923 0 0 255
-0.011029163 0.005707555 0.097447768 0 0 255
-0.011082798 0.0056181489 0.096340261 0 0 255
-0.011159454 0.0055364277 0.095240347 0 0 255
-0.011882121 0.0056762751 0.094387189 0 0 255
-0.012327195 0.0057208878 0.093428135 0 0 255
-0.0089101354 0.0044400911 0.090979777 159 0 96
-0.0083222138 0.0041296068 0.089616381 255 0 0
-0.0085315397 0.0040927855 0.08856 255 0 0
-0.0088507608 0.0040935725 0.087545618 255 0 0
-0.0094557237 0.0041925944 0.08664266 255 0 0
-0.0098711923 0.0042264415 0.085665695 255 0 0
-0.010727394 0.0044118422 0.084861882 255 0 0
-0.011673708 0.004628357 0.084094532 255 0 0
-0.012297507 0.0047340114 0.083200879 255 0 0
-0.012788101 0.0047938726 0.082255006 255 0 0
-0.013569856 0.0049539683 0.081424922 255 0 0
-0.014671478 0.0052243718 0.080723286 255 0 0
-0.015358865 0.0053521148 0.079857364 255 0 0
-0.016045414 0.0054796804 0.078991905 255 0 0
-0.016838985 0.0056441948 0.078170031 255 0 0
-0.017528858 0.0057730004 0.077307053 255 0 0
-0.018107345 0.0058634654 0.076399721 255 0 0
-0.01885804 0.006013399 0.075562544 255 0 0
-0.019508602 0.0061288094 0.074685365 255 0 0
-0.020108227 0.0062267017 0.073787868 255 0 0
-0.020566104 0.0062756441 0.072832651 255 0 0
-0.021149674 0.0063680285 0.071929157 255 0 0
-0.021638153 0.0064275353 0.070986822 255 0 0
-0.022138998 0.0064913835 0.070049703 255 0 0
-0.022707978 0.0065788128 0.069141008 255 0 0
-0.023067018 0.0065935389 0.068145193 255 0 0
-0.023636607 0.0066812104 0.067237154 255 0 0
-0.02406547 0.00672021 0.066270433 255 0 0
-0.024507683 0.0067637251 0.065309301 255 0 0
-0.024761839 0.0067421696 0.064269066 255 0 0
-0.025223572 0.0067925355 0.063316025 255 0 0
-0.025574813 0.0068044588 0.062316071 255 0 0
0.026799724 -0.011474811 0.038932383 255 0 0
-0.026239425 0.0068152728 0.060299627 255 0 0
0.026987661 -0.011772477 0.036420867 255 0 0
-0.026769457 0.0067792516 0.058224469 255 0 0
-0.026951218 0.0067322478 0.057150345 255 0 0
-0.027137384 0.0066867066 0.056077521 255 0 0
-0.027513029 0.0067069405 0.055085961 255 0 0
-0.027763812 0.0066837892 0.054040186 255 0 0
-0.027914084 0.0066256216 0.052950207 255 0 0
-0.027904788 0.0065118652 0.051789977 255 0 0
-0.02823703 0.0065168468 0.050777808 255 0 0
-0.028420497 0.0064700283 0.049700178 255 0 0
-0.028627433 0.0064313104 0.048632242 255 0 0
-0.028626062 0.0063199317 0.047471914 255 0 0
-0.028761629 0.0062562427 0.046371043 255 0 0
-0.028878001 0.0061857533 0.045260765 255 0 0
-0.02908049 0.006145183 0.044188015 255 0 0
-0.029324619 0.0061191502 0.043133169 255 0 0
-0.029465975 0.0060571372 0.042031854 255 0 0
-0.02951416 0.005962566 0.040888082 255 0 0
-0.02942461 0.0058197496 0.039681315 255 0 0
-0.029712616 0.0058087562 0.03864355 255 0 0
-0.029806545 0.0057298755 0.037517518 255 0 0
-0.02972821 0.0055906456 0.036312517 255 0 0
-0.029745292 0.0054847295 0.035149653 255 0 0
-0.029649701 0.0053392197 0.033934232 255 0 0
-0.029724738 0.0052533555 0.032795511 255 0 0
-0.029626364 0.0051066545 0.031576324 255 0 0
-0.029477974 0.0049423296 0.030332757 255 0 0
-0.029281935 0.0047611403 0.029065728 255 0 0
-0.02957448 0.004751042 0.028022902 255 0 0
-0.029440008 0.004591221 0.026781725 255 0 0
-0.029331636 0.0044403821 0.025551213 255 0 0
-0.02918783 0.0042769378 0.024302782 255 0 0
-0.028742509 0.0040075588 0.022911947 255 0 0
-0.028533939 0.0038210996 0.021629781 255 0 0
-0.028717253 0.0037721114 0.020530015 255 0 0
-0.028468726 0.003571294 0.019226015 255 0 0
-0.028304696 0.0034000035 0.017960269 255 0 0
-0.027533891 0.0030152821 0.016405594 255 0 0
-0.027739819 0.0029737863 0.015311579 255 0 0
-0.027610393 0.0028142103 0.014057321 255 0 0
-0.027089858 0.002516849 0.012614738 255 0 0
-0.027270949 0.0024662444 0.011505576 255 0 0
-0.027003419 0.0022576088 0.01018036 255 0 0
-0.026309853 0.0018986658 0.0086482102 255 0 0
-0.026454791 0.0018350054 0.0075178379 255 0 0
0.020705406 -0.014908319 -0.016507301 255 0 0
-0.025858102 0.0013946827 0.0048244232 255 0 0
-0.025958324 0.001314877 0.0036686927 255 0 0
0.020696992 -0.015268081 -0.020297503 255 0 0
-0.025617676 0.00096403249 0.0010899408 255 0 0
-0.025301244 0.00073674851 -0.00027358832 255 0 0
0.020955548 -0.015723312 -0.024230154 255 0 0
-0.025054812 0.00041817292 -0.0028160072 255 0 0
-0.025217263 0.00035964814 -0.0039483677 255 0 0
-0.025140548 0.00021653961 -0.0051999171 255 0 0
-0.024750145 -3.7780224e-05 -0.0066088885 255 0 0
0.02118518 -0.01641354 -0.030713586 255 0 0
-0.025011748 -0.00017787566 -0.0089124534 255 0 0
-0.024783984 -0.00037511316 -0.010245196 255 0 0
-0.025027689 -0.0004053431 -0.01134288 255 0 0
-0.025005048 -0.00053009408 -0.012575222 255 0 0
-0.024949813 -0.00066655205 -0.013825338 255 0 0
-0.024935646 -0.00078856206 -0.01505603 255 0 0
0.021395518 -0.017345851 -0.039791614 255 0 0
-0.025043126 -0.00098468096 -0.017451964 255 0 0
-0.024843754 -0.0011727826 -0.018780567 255 0 0
-0.025195552 -0.0011652779 -0.019829201 255 0 0
-0.025249418 -0.0012636678 -0.021030793 255 0 0
-0.025281068 -0.001370018 -0.022244848 255 0 0
-0.025145674 -0.0015359044 -0.023546191 255 0 0
-0.025065647 -0.0016822779 -0.024820404 255 0 0
-0.025382509 -0.0016874989 -0.025890496 255 0 0
-0.025466044 -0.0017758396 -0.027082147 255 0 0
-0.02560842 -0.0018433199 -0.028244177 255 0 0
-0.025561547 -0.0019782884 -0.029505841 255 0 0
-0.025646463 -0.0020664444 -0.030699866 255 0 0
-0.025772275 -0.0021401122 -0.031873465 255 0 0
-0.025856702 -0.0022286549 -0.0330697 255 0 0
-0.026023729 -0.0022877539 -0.034223299 255 0 0
-0.026080454 -0.0023863174 -0.03543609 255 0 0
-0.026050184 -0.0025160636 -0.036696106 255 0 0
-0.026274769 -0.0025549198 -0.03782206 255 0 0
0.025072353 -0.021018058 -0.066420868 255 0 0
-0.026664218 -0.0026541282 -0.040107515 255 0 0
-0.026788417 -0.0027290487 -0.041289132 255 0 0
-0.026958494 -0.0027876475 -0.042447098 255 0 0
-0.027288008 -0.0027892594 -0.043519851 255 0 0
-0.027488448 -0.002837115 -0.04466271 255 0 0
-0.027630106 -0.0029061658 -0.045838166 255 0 0
-0.027761051 -0.0029790259 -0.047020193 255 0 0
-0.02813001 -0.0029667234 -0.048073713 255 0 0
-0.028350234 -0.0030077945 -0.049208697 255 0 0
-0.028572971 -0.0030479436 -0.050342783 255 0 0
-0.028855572 -0.003066736 -0.051444788 255 0 0
0.02461681 -0.02237311 -0.082053386 255 0 0
-0.029289842 -0.003151508 -0.053722359 255 0 0
-0.029402226 -0.0032315832 -0.054919992 255 0 0
-0.029573608 -0.0032905112 -0.056085825 255 0 0
-0.029851587 -0.0033112646 -0.057193417 255 0 0
-0.030176455 -0.0033152003 -0.058275498 255 0 0
-0.030267779 -0.0034031635 -0.059488043 255 0 0
-0.030496396 -0.0034417936 -0.060624946 255 0 0
-0.030608792 -0.0035223491 -0.061827458 255 0 0
-0.030646749 -0.0036297983 -0.06307286 255 0 0
-0.030686963 -0.0037365365 -0.064318016 255 0 0
-0.030813945 -0.0038121068 -0.065515481 255 0 0
-0.03089764 -0.0039034158 -0.066738404 255 0 0
-0.030859685 -0.0040386338 -0.068031162 255 0 0
-0.030741815 -0.0042028106 -0.069370754 255 0 0
-0.030841755 -0.0042885798 -0.070588037 255 0 0
-0.030795768 -0.0044271182 -0.071889602 255 0 0
-0.03080249 -0.0045466973 -0.07316222 255 0 0
-0.03076084 -0.0046838885 -0.074464001 255 0 0
-0.030518647 -0.004893675 -0.075882383 255 0 0
-0.030721834 -0.0049427245 -0.077046171 255 0 0
-0.021303212 -0.0084706852 -0.083769351 255 0 0
0.0068936404 0.0024359361 0.10890686 0 0 255
0.0027144505 0.0037481429 0.10928682 0 0 255
-0.0013461054 0.0050207963 0.10963239 0 0 255
-0.0044439947 0.0059669921 0.10963601 0 0 255
-0.0087822378 0.0073356126 0.11009903 0 0 255
-0.010041758 0.0076577994 0.10944284 0 0 255
-0.010394358 0.0076713623 0.10845502 0 0 255
-0.010314383 0.0075378665 0.10730769 0 0 255
-0.010533537 0.0075059626 0.10626961 0 0 255
-0.010717307 0.0074620466 0.10521796 0 0 255
-0.010740319 0.0073632696 0.10410579 0 0 255
-0.011105821 0.0073811179 0.10312057 0 0 255
-0.010759234 0.007156136 0.10186841 0 0 255
-0.011109564 0.0071686851 0.1008762 0 0 255
-0.011062794 0.0070458385 0.099734217 0 0 255
-0.01154358 0.0071027707 0.098790474 0 0 255
-0.011491433 0.0069778599 0.097644679 0 0 255
-0.011741969 0.0069561736 0.0966129 0 0 255
-0.011849458 0.0068855719 0.09552604 0 0 255
-0.011879 0.0067882659 0.094408497 0 0 255
-0.012813476 0.0070002177 0.093637705 0 0 255
-0.0093818381 0.005719122 0.091184884 159 0 96
-0.0091245994 0.0055231224 0.08995045 255 0 0
-0.0092364941 0.0054533123 0.08885742 255 0 0
-0.0091786711 0.00532533 0.0876977 255 0 0
-0.0096783089 0.0053881323 0.086754255 255 0 0
-0.010519213 0.00556779 0.085944578 255 0 0
-0.010911352 0.0055937851 0.084959544 255 0 0
-0.011594516 0.0057195956 0.084089227 255 0 0
-0.01239024 0.0058839628 0.083263762 255 0 0
-0.01330984 0.0060910159 0.082488395 255 0 0
-0.014050256 0.006236658 0.081642874 255 0 0
-0.014619704 0.0063236649 0.080729835 255 0 0
-0.015420016 0.0064899228 0.079909526 255 0 0
-0.016241744 0.006663729 0.079098716 255 0 0
-0.016994309 0.0068137469 0.078260861 255 0 0
-0.017510099 0.006882546 0.077328235 255 0 0
-0.018307883 0.0070482055 0.0765099 255 0 0
-0.018750362 0.0070918323 0.075548291 255 0 0
-0.019460518 0.0072274986 0.07469555 255 0 0
-0.020174552 0.0073645683 0.073845051 223 0 0
-0.020580404 0.0073956763 0.072869077 255 0 0
-0.021297706 0.0075339754 0.07202094 255 0 0
-0.021533506 0.007506466 0.070975013 255 0 0
-0.022162277 0.007614363 0.070091099 255 0 0
-0.022522023 0.0076294709 0.06909585 255 0 0
-0.023080468 0.0077131665 0.068183221 255 0 0
-0.023588859 0.0077795773 0.067249976 255 0 0
-0.023979003 0.007805218 0.066267401 255 0 0
-0.024310907 0.0078107081 0.065260239 255 0 0
-0.024733739 0.0078476174 0.06429109 255 0 0
-0.02510792 0.0078677023 0.063301384 255 0 0
-0.025380686 0.0078527769 0.062268633 255 0 0
-0.025718583 0.0078602303 0.06126298 255 0 0
-0.026085833 0.0078778481 0.060269594 255 0 0
-0.026308909 0.0078456076 0.059214592 255 0 0
-0.026602931 0.0078378245 0.058189284 255 0 0
-0.026895098 0.0078293737 0.057162847 255 0 0
-0.027212897 0.0078297323 0.056147095 255 0 0
-0.027442979 0.0077997074 0.055093102 255 0 0
-0.027568091 0.0077332854 0.053993136 255 0 0
-0.027826844 0.0077130231 0.052950405 255 0 0
-0.028019831 0.0076699718 0.051878545 255 0 0
-0.028133865 0.0075995019 0.050771657 255 0 0
-0.028315153 0.0075522596 0.049693376 255 0 0
-0.028395753 0.0074700052 0.048570111 255 0 0
-0.028521067 0.0074031842 0.047465712 255 0 0
-0.028641477 0.0073345955 0.046358358 255 0 0
-0.028628917 0.0072197048 0.045191195 255 0 0
-0.028823465 0.0071766684 0.044114955 223 0 0
-0.029159756 0.0071829329 0.043101288 255 0 0
-0.029255997 0.0071056434 0.041980054 255 0 0
-0.029405262 0.0070467377 0.040881734 255 0 0
-0.02940537 0.0069357948 0.039715566 255 0 0
-0.029528085 0.0068674232 0.038603552 255 0 0
-0.029592989 0.0067789 0.037464585 255 0 0
-0.029751213 0.0067227972 0.036367036 255 0 0
-0.029663617 0.0065809046 0.035156965 255 0 0
-0.029617006 0.0064532082 0.033964217 255 0 0
-0.029604133 0.0063371491 0.032785673 255 0 0
-0.029588651 0.0062200497 0.031604748 255 0 0
-0.029332433 0.0060188039 0.030311909 255 0 0
-0.029550588 0.0059830635 0.029236078 255 0 0
-0.029040154 0.0056927232 0.027822802 255 0 0
-0.029214244 0.0056414017 0.026724435 255 0 0
-0.028934933 0.0054314793 0.025414588 255 0 0
-0.028959354 0.0053276541 0.024244513 255 0 0
-0.028443886 0.0050348109 0.022821071 255 0 0
-0.028679959 0.0050047142 0.021747202 255 0 0
-0.028566174 0.0048521166 0.020508511 255 0 0
-0.028245663 0.0046269805 0.019170936 255 0 0
-0.027889982 0.0043893727 0.017814783 255 0 0
-0.028042138 0.0043294514 0.016697066 255 0 0
-0.027811131 0.004135211 0.015396616 255 0 0
-0.02757166 0.0039378428 0.014090494 255 0 0
-0.027446216 0.0037802681 0.012836965 255 0 0
-0.02700677 0.0035123758 0.011431589 255 0 0
-0.026539836 0.0032346547 0.01001084 255 0 0
-0.026648564 0.0031587519 0.0088645956 255 0 0
-0.026293902 0.002920063 0.0074939602 255 0 0
-0.026019564 0.0027093575 0.0061600609 255 0 0
-0.025983036 0.0025821368 0.0049397224 255 0 0
-0.02579437 0.0024012742 0.0036440864 255 0 0
-0.025723806 0.0022617714 0.0024043398 255 0 0
-0.025270373 0.0019874056 0.00097604282 255 0 0
-0.025204672 0.0018493198 -0.00026447995 255 0 0
-0.025048118 0.0016791311 -0.0015510679 255 0 0
-0.024990875 0.0015437505 -0.0027902303 255 0 0
-0.025107786 0.0014695984 -0.0039447374 255 0 0
-0.02469283 0.0012078818 -0.0053636078 255 0 0
-0.024856701 0.0011500734 -0.0064972201 255 0 0
-0.024632631 0.00095532223 -0.0078248261 255 0 0
-0.024923556 0.00094214902 -0.0088969879 255 0 0
-0.024781892 0.00077621097 -0.010186257 255 0 0
-0.024815733 0.00067216903 -0.011388903 255 0 0
-0.024818925 0.00055712019 -0.012608177 255 0 0
-0.024850491 0.00045199471 -0.013814232 255 0 0
-0.024785792 0.00031275852 -0.015070111 255 0 0
-0.024887266 0.00023214817 -0.01624308 255 0 0
-0.024700539 4.9475584e-05 -0.017563617 255 0 0
-0.024949109 2.0698848e-05 -0.018663852 255 0 0
-0.025044907 -6.2173451e-05 -0.019842703 255 0 0
-0.024865115 -0.00024280354 -0.021163873 255 0 0
-0.025173236 -0.00025075031 -0.022235908 255 0 0
-0.025232503 -0.0003468692 -0.023436617 255 0 0
-0.025007514 -0.00054386555 -0.024785174 223 0 0
-0.025189059 -0.00059692335 -0.025925057 255 0 0
-0.025340857 -0.00066052895 -0.02708099 255 0 0
-0.025462385 -0.00073500746 -0.028253643 255 0 0
-0.025601441 -0.000803356 -0.02941798 255 0 0
-0.025533769 -0.00094513351 -0.030691329 255 0 0
-0.025626177 -0.0010302041 -0.03188204 255 0 0
-0.025612827 -0.0011530039 -0.033129539 255 0 0
-0.025681188 -0.0012468053 -0.034335177 255 0 0
-0.026032312 -0.0012402001 -0.035392329 255 0 0
-0.026144009 -0.0013187646 -0.036576722 255 0 0
-0.0261086 -0.0014497932 -0.037840113 255 0 0
-0.026374662 -0.0014736035 -0.038944259 255 0 0
-0.026481567 -0.0015541812 -0.040134024 255 0 0
-0.02646073 -0.0016803291 -0.041393097 255 0 0
-0.026926033 -0.0016333869 -0.0423925 255 0 0
-0.027074145 -0.0016994366 -0.043562599 255 0 0
-0.027351217 -0.0017196308 -0.044663984 255 0 0
-0.027566107 -0.0017620937 -0.045799475 255 0 0
0.025416831 -0.020790726 -0.075771295 255 0 0
-0.027893832 -0.0018835987 -0.048127968 255 0 0
-0.028195065 -0.0018953406 -0.049218543 255 0 0
-0.028322112 -0.0019693924 -0.050404731 255 0 0
-0.028593488 -0.0019919802 -0.051512752 255 0 0
-0.028926911 -0.0019923947 -0.052587256 255 0 0
-0.029119028 -0.0020433832 -0.053739894 255 0 0
-0.029381635 -0.0020692539 -0.054854423 255 0 0
-0.029426254 -0.0021732152 -0.05608999 255 0 0
-0.029842393 -0.0021442082 -0.057120722 255 0 0
-0.029882738 -0.0022498132 -0.058360439 255 0 0
0.021659996 -0.020838764 -0.088332191 255 0 0
-0.030313779 -0.0023359002 -0.060647834 255 0 0
-0.030449696 -0.0024074833 -0.061836891 255 0 0
-0.030479431 -0.0025173284 -0.063086562 255 0 0
-0.030517062 -0.0026244496 -0.064333022 255 0 0
-0.030719392 -0.0026725153 -0.065487757 255 0 0
-0.030676842 -0.0028086819 -0.066781655 255 0 0
-0.030351026 -0.0030466411 -0.068237469 255 0 0
-0.030719053 -0.003035482 -0.069301262 255 0 0
-0.030533329 -0.0032234129 -0.070680544 255 0 0
-0.030706033 -0.0032826362 -0.071857274 255 0 0
-0.030733606 -0.003394115 -0.073117688 255 0 0
-0.030730437 -0.0035168584 -0.07439708 255 0 0
-0.030499253 -0.0037216877 -0.075808652 255 0 0
-0.030585654 -0.0038124598 -0.077039391 255 0 0
-0.020385848 -0.0076091979 -0.084212504 255 0 0
0.011366785 0.0021532781 0.10844546 0 0 128
0.0067581157 0.0036056591 0.10897148 0 0 255
0.0030954923 0.0047386084 0.10916506 0 0 255
-0.0013151672 0.0061256546 0.1096376 0 0 255
-0.0044920752 0.0070955059 0.10967019 0 0 255
-0.0081620598 0.0082331169 0.10988937 0 0 255
-0.01028743 0.0088478345 0.10955013 0 0 255
-0.010656795 0.0088674016 0.10856932 0 0 255
-0.010860687 0.0088307066 0.10752712 0 0 255
-0.011021414 0.0087793926 0.10646851 0 0 255
-0.011036467 0.0086785778 0.10535523 0 0 255
-0.01083597 0.0085044708 0.10416057 0 0 255
-0.011204083 0.0085233562 0.1031768 0 0 255
-0.011224356 0.0084239636 0.10206244 0 0 255
-0.011402402 0.0083782254 0.10100662 0 0 255
-0.011555415 0.0083238464 0.099940524 0 0 255
-0.011603714 0.0082337614 0.098834187 0 0 255
-0.011747777 0.0081762653 0.097763389 0 0 255
-0.011800914 0.0080876732 0.096657068 0 0 255
-0.012070403 0.0080726547 0.095632449 0 0 255
-0.011945429 0.0079233153 0.094456397 0 0 255
-0.013111923 0.0082137948 0.09377531 0 0 255
-0.013048782 0.0080853673 0.092621855 64 0 191
-0.0097243041 0.0068449057 0.090206034 255 0 0
-0.009765517 0.0067514656 0.089086697 255 0 0
-0.0096837068 0.0066159461 0.08791852 255 0 0
-0.010088615 0.0066464315 0.086939126 255 0 0
0.017340707 -0.0028255607 0.07506182 255 0 0
-0.01137597 0.006870456 0.085167542 255 0 0
-0.012043875 0.0069908192 0.084292039 255 0 0
-0.012698475 0.0071066949 0.083411731 255 0 0
0.020900488 -0.0044870684 0.068955578 255 0 0
-0.014118553 0.007376512 0.081696928 255 0 0
0.022262493 -0.0051767216 0.066049531 255 0 0
-0.015567266 0.007656381 0.079996116 255 0 0
-0.016158888 0.0077509237 0.079093374 255 0 0
-0.016923733 0.0079047568 0.078260705 255 0 0
-0.017801072 0.0080974139 0.077474453 255 0 0
-0.018405763 0.0081966473 0.076578684 255 0 0
-0.01895394 0.0082764616 0.075660363 255 0 0
-0.01950966 0.0083589591 0.074745387 255 0 0
-0.020071175 0.0084434757 0.073833048 255 0 0
-0.020538945 0.0084958496 0.072882675 255 0 0
-0.021127753 0.0085897315 0.071981996 255 0 0
-0.02160549 0.0086455643 0.071035951 255 0 0
-0.022068094 0.0086961603 0.070083678 255 0 0
-0.022506583 0.0087385047 0.069121532 255 0 0
-0.022885783 0.0087605277 0.06813471 255 0 0
-0.023324322 0.0088028535 0.06717243 255 0 0
-0.023858113 0.0088779191 0.066249967 255 0 0
-0.024229581 0.0088971835 0.065259606 255 0 0
0.027707549 -0.0090862662 0.042260077 255 0 0
-0.024917349 0.0089167478 0.063255236 255 0 0
-0.025297329 0.0089389188 0.062267955 255 0 0
-0.025544418 0.0089152539 0.061224055 255 0 0
-0.025966514 0.0089519182 0.060254272 255 0 0
-0.026298583 0.0089574773 0.059245925 255 0 0
0.028300246 -0.0099807782 0.034717668 255 0 0
0.028475065 -0.010156567 0.033423021 255 0 0
-0.027064951 0.0088947341 0.056120228 255 0 0
-0.027119115 0.0088042701 0.054990549 255 0 0
-0.027498581 0.0088260155 0.054000653 255 0 0
-0.027643099 0.0087666009 0.052908637 255 0 0
-0.027818531 0.0087178051 0.051829319 255 0 0
-0.028048398 0.0086877402 0.05077314 255 0 0
-0.028177377 0.0086227143 0.04967216 255 0 0
-0.028302591 0.0085563967 0.048568834 255 0 0
-0.028493781 0.008512795 0.0474937 255 0 0
-0.02864478 0.008455202 0.046400197 255 0 0
-0.028616732 0.0083355187 0.045226634 255 0 0
-0.028949469 0.0083407434 0.044212174 255 0 0
-0.028987858 0.008243965 0.043066368 255 0 0
-0.029119553 0.0081793657 0.041961074 255 0 0
-0.029351601 0.0081495363 0.040900018 255 0 0
-0.029223202 0.007994609 0.039676465 255 0 0
-0.029404856 0.0079471683 0.038591273 255 0 0
-0.029355491 0.0078194086 0.037400909 255 0 0
-0.029638881 0.0078071044 0.036360111 255 0 0
-0.029630972 0.0076935403 0.035186484 255 0 0
-0.029587248 0.0075674709 0.033995468 255 0 0
-0.029469343 0.0074155149 0.032769263 255 0 0
-0.029301377 0.0072459932 0.031518735 255 0 0
-0.029309327 0.0071375184 0.030347435 255 0 0
-0.029198283 0.0069875047 0.029120162 255 0 0
-0.029282283 0.0069053229 0.027981678 255 0 0
-0.028982507 0.0066893161 0.026664391 255 0 0
-0.028853068 0.0065325405 0.025424311 255 0 0
-0.028848484 0.0064190887 0.024241002 255 0 0
-0.02862164 0.0062280702 0.022952741 255 0 0
-0.028684892 0.0061380588 0.021798518 255 0 0
-0.028313467 0.0058962973 0.020439178 255 0 0
-0.028174726 0.0057355473 0.019187363 255 0 0
-0.027809775 0.0054956689 0.017827172 255 0 0
-0.027881341 0.0054080687 0.016671607 255 0 0
-0.02762421 0.0052055218 0.015359084 255 0 0
-0.027405631 0.0050162761 0.014062977 255 0 0
-0.027159728 0.0048173843 0.012752174 255 0 0
-0.026942197 0.0046281791 0.011453156 255 0 0
-0.026806016 0.0044672717 0.010191438 255 0 0
-0.026306452 0.004179047 0.0087532932 255 0 0
-0.025953887 0.0039420454 0.0073836627 255 0 0
-0.026139772 0.0038934492 0.0062724999 255 0 0
-0.025693335 0.0036232388 0.0048538563 255 0 0
-0.025453448 0.0034252068 0.003533303 255 0 0
-0.025462884 0.0033143919 0.0023326497 255 0 0
-0.025294313 0.0031410542 0.0010437272 255 0 0
-0.025188295 0.0029895585 -0.00021609453 255 0 0
-0.024696663 0.0027025251 -0.0016669645 255 0 0
-0.024976714 0.0026861567 -0.0027399308 255 0 0
-0.024816565 0.0025151549 -0.0040309434 255 0 0
-0.024905285 0.0024314853 -0.0052001844 255 0 0
-0.024844296 0.0022950578 -0.006444809 255 0 0
-0.024821084 0.0021718198 -0.0076719052 255 0 0
-0.024667729 0.0020026895 -0.0089652995 255 0 0
-0.024587706 0.001859203 -0.010223526 255 0 0
-0.02465895 0.0017688196 -0.011407245 255 0 0
-0.024680173 0.0016607037 -0.012617109 255 0 0
-0.024783242 0.0015812984 -0.013786941 255 0 0
-0.024740057 0.0014503584 -0.01503158 255 0 0
-0.02467083 0.0013100447 -0.01629078 255 0 0
-0.024578471 0.0011615168 -0.017563079 255 0 0
-0.024846293 0.001139759 -0.018653242 255 0 0
-0.024949055 0.0010597707 -0.019828264 255 0 0
-0.024981946 0.00095503085 -0.021040058 255 0 0
-0.025064657 0.00086777081 -0.022227369 255 0 0
-0.025100706 0.00076398021 -0.023439674 255 0 0
-0.025087133 0.00064253347 -0.02467877 255 0 0
-0.02517334 0.00055617397 -0.025867498 255 0 0
-0.025125414 0.00042240386 -0.027126759 255 0 0
-0.02526569 0.00035501606 -0.028289411 255 0 0
-0.025300896 0.00025034373 -0.029507846 255 0 0
-0.025397731 0.0001673996 -0.03069512 255 0 0
-0.025650322 0.00013947906 -0.031801619 255 0 0
-0.025506478 -2.8837692e-05 -0.033117108 255 0 0
-0.025780199 -4.9396895e-05 -0.034214109 255 0 0
-0.025602007 -0.00023016342 -0.035550538 255 0 0
-0.025960827 -0.00022070654 -0.036604051 255 0 0
-0.026052203 -0.0003061344 -0.037799954 255 0 0
-0.026195854 -0.00037310124 -0.038968936 255 0 0
-0.026307156 -0.00045163644 -0.040156156 255 0 0
-0.026545728 -0.00048507471 -0.041276041 255 0 0
-0.02665952 -0.00056285184 -0.042463589 255 0 0
-0.027009487 -0.00055685447 -0.043524921 255 0 0
-0.02719062 -0.00061090977 -0.044677753 255 0 0
-0.02734701 -0.00067378057 -0.045844674 255 0 0
-0.027666857 -0.00067861093 -0.046923786 255 0 0
-0.027810318 -0.00074628042 -0.04809919 255 0 0
-0.028120723 -0.00075455761 -0.049184404 255 0 0
0.025677335 -0.020026835 -0.079814598 255 0 0
-0.028480353 -0.00086424238 -0.051499233 255 0 0
-0.028715847 -0.00089939212 -0.05262718 255 0 0
-0.028981373 -0.00092387298 -0.053739242 255 0 0
0.024941199 -0.020268552 -0.084733911 255 0 0
-0.029427096 -0.0010034536 -0.056012169 255 0 0
-0.02962926 -0.0010507331 -0.057161149 255 0 0
-0.029803537 -0.0011080112 -0.058326241 255 0 0
-0.029970085 -0.0011681215 -0.059496477 255 0 0
0.021605229 -0.019709673 -0.089553162 255 0 0
-0.03026443 -0.0013024199 -0.061860997 255 0 0
-0.030312471 -0.0014051253 -0.063100167 255 0 0
-0.030384997 -0.0014991866 -0.064326696 255 0 0
-0.030476056 -0.0015867501 -0.065544032 255 0 0
-0.030550994 -0.001680124 -0.066771284 255 0 0
-0.030577926 -0.001790816 -0.068026833 255 0 0
-0.030581325 -0.0019100765 -0.06929706 255 0 0
-0.030237265 -0.0021538322 -0.070766166 255 0 0
-0.030575316 -0.0021534506 -0.07184846 255 0 0
-0.030288922 -0.0023768714 -0.073288068 255 0 0
-0.030618234 -0.00237983 -0.074377075 255 0 0
-0.030576561 -0.0025158015 -0.075679384 255 0 0
-0.03046257 -0.0026778681 -0.07702481 255 0 0
-0.023243399 -0.0053909328 -0.082475409 255 0 0
0.011531428 0.0032255528 0.10840176 0 0 159
0.0073745777 0.0045206281 0.10876493 0 0 255
0.0029050196 0.0059220907 0.10924999 0 0 255
-0.0008420985 0.0070805792 0.1094822 0 0 255
-0.0043332791 0.0081533985 0.10962906 0 0 255
-0.0080560334 0.0093050422 0.10986763 0 0 255
-0.010432685 0.010002704 0.10962068 0 0 255
-0.010918455 0.010061703 0.10868312 0 0 255
-0.011076285 0.010009862 0.10762468 0 0 255
-0.011051461 0.0098961303 0.10649796 0 0 255
-0.011150064 0.0098241242 0.1054161 0 0 255
-0.011472406 0.0098277256 0.10441669 0 0 255
-0.011404512 0.0096991677 0.10327107 0 0 255
-0.011454117 0.0096103977 0.10216843 0 0 255
-0.011572425 0.0095447227 0.10109068 0 0 255
-0.011824321 0.0095242085 0.10006244 0 0 255
-0.011684563 0.0093709668 0.09888579 0 0 255
-0.011852479 0.0092157926 0.096698403 0 0 255
-0.0120906 0.0091903731 0.095662206 0 0 255
-0.01217242 0.0091118477 0.094565682 0 0 255
-0.013188485 0.009350501 0.093827426 0 0 255
-0.013404928 0.0093177138 0.092782222 32 0 223
-0.0099920388 0.0080516897 0.090333022 255 0 0
-0.0096707977 0.0078356536 0.089073926 255 0 0
-0.0099273389 0.0078157904 0.088037685 255 0 0
-0.010339059 0.0078487778 0.087061569 255 0 0
-0.010713877 0.0078690909 0.086070925 255 0 0
-0.011485078 0.0080243163 0.085235864 255 0 0
-0.012101183 0.0081268391 0.084340416 255 0 0
-0.012697889 0.008222729 0.083437666 255 0 0
-0.013465913 0.0083771395 0.082603373 255 0 0
-0.014193393 0.0085176686 0.08175341 255 0 0
-0.014846067 0.0086328872 0.080874562 255 0 0
-0.015576506 0.0087745991 0.080027319 255 0 0
-0.016206848 0.0088822749 0.079140581 255 0 0
-0.016890606 0.0090081822 0.078275718 255 0 0
-0.017509442 0.0091119586 0.077385269 255 0 0
-0.01828268 0.0092685735 0.076557815 255 0 0
-0.018811109 0.0093415966 0.07563176 255 0 0
-0.019289011 0.0093973493 0.074685216 255 0 0
-0.019936629 0.0095111541 0.073808216 255 0 0
-0.020461787 0.0095831659 0.07288152 255 0 0
-0.020998824 0.0096591944 0.071959831 255 0 0
0.027075801 -0.006897585 0.051004253 223 0 0
-0.021889159 0.0097484607 0.070041291 255 0 0
-0.022308281 0.0097842412 0.069071271 255 0 0
-0.022769537 0.0098343799 0.068118662 255 0 0
-0.023275075 0.0098997205 0.067184538 255 0 0
-0.023706377 0.0099395923 0.066219598 255 0 0
-0.024070993 0.0099566868 0.065226585 255 0 0
-0.024409026 0.0099645387 0.064222246 255 0 0
-0.024679119 0.0099491514 0.06318894 255 0 0
0.028324069 -0.0083497334 0.039610855 255 0 0
-0.025494419 0.010012616 0.061237894 255 0 0
-0.025775386 0.010000758 0.060208224 255 0 0
-0.026128149 0.01001365 0.059208866 255 0 0
-0.026317438 0.0099703278 0.058139291 255 0 0
-0.026606474 0.0099611087 0.057111904 255 0 0
-0.026776951 0.0099112419 0.056033146 255 0 0
-0.027131846 0.0099246344 0.055033281 255 0 0
-0.02734964 0.0098909149 0.053973842 255 0 0
-0.027402135 0.0098001594 0.05284204 255 0 0
-0.027782181 0.0098221442 0.051851962 255 0 0
-0.027887156 0.009749338 0.050741479 255 0 0
-0.028117634 0.0097197583 0.049685258 255 0 0
-0.028267205 0.0096622119 0.048592918 255 0 0
-0.028381858 0.0095925424 0.047484435 255 0 0
-0.028518075 0.0095302314 0.046384655 255 0 0
-0.028579073 0.0094418973 0.045250714 255 0 0
-0.028812196 0.0094129127 0.044192448 255 0 0
-0.028888166 0.0093295323 0.043063473 255 0 0
-0.029025579 0.0092673469 0.041961089 223 0 0
-0.029188009 0.0092138043 0.040869128 255 0 0
-0.029307095 0.0091451118 0.039756976 255 0 0
-0.029380152 0.0090604126 0.038623244 255 0 0
-0.029308444 0.0089256102 0.037423231 255 0 0
-0.029195962 0.0087765371 0.03620341 255 0 0
-0.029477065 0.0087636374 0.035161022 255 0 0
-0.029424639 0.0086351074 0.033966161 255 0 0
-0.029473465 0.008541611 0.03281638 255 0 0
-0.029286114 0.0083661387 0.031557407 255 0 0
-0.029377129 0.0082870265 0.030424621 255 0 0
-0.029189657 0.0081112478 0.029162658 255 0 0
-0.029113196 0.0079738554 0.027950456 255 0 0
-0.029092094 0.0078554982 0.026762465 255 0 0
0.024000194 -0.010683829 0.00091923279 255 0 0
-0.028742572 0.0075118393 0.024239838 255 0 0
-0.02859755 0.0073500508 0.02298997 255 0 0
-0.028517889 0.0072108633 0.021769222 255 0 0
-0.028324325 0.0070319697 0.020493673 255 0 0
-0.028272793 0.0069023101 0.019283403 255 0 0
-0.027887154 0.0066562602 0.017914001 255 0 0
-0.027625114 0.0064531351 0.01660102 255 0 0
-0.027509306 0.00630063 0.015355627 255 0 0
-0.0272414 0.0060950844 0.014036375 255 0 0
-0.026965396 0.0058865161 0.012711402 255 0 0
-0.026744328 0.0056969253 0.011410875 255 0 0
-0.026588194 0.0055298032 0.010139759 255 0 0
-0.025964241 0.0051993774 0.0086419294 223 0 0
-0.026135799 0.0051462138 0.007525187 255 0 0
-0.025948141 0.0049676071 0.0062339487 255 0 0
-0.025550686 0.0047156909 0.0048392904 255 0 0
-0.0254448 0.0045652543 0.0035842031 255 0 0
-0.025339546 0.0044149929 0.0023280384 255 0 0
-0.025161196 0.0042390111 0.0010345557 255 0 0
-0.025106303 0.0041060429 -0.00019994652 255 0 0
-0.025011275 0.0039589386 -0.0014554805 255 0 0
-0.024659812 0.0037220144 -0.0028388368 255 0 0
-0.024736155 0.0036345061 -0.0040129544 255 0 0
-0.024632689 0.0034840254 -0.0052770912 255 0 0
-0.024721606 0.0034006955 -0.0064471778 255 0 0
-0.024552384 0.0032269724 -0.0077467132 255 0 0
-0.024271617 0.0030139352 -0.0091035897 255 0 0
-0.024625141 0.0030230815 -0.010144873 255 0 0
-0.024684906 0.0029291771 -0.011333884 255 0 0
-0.024638407 0.0027979012 -0.012577398 255 0 0
-0.02441778 0.0026054103 -0.01391012 223 0 0
0.022901304 -0.014118705 -0.039073512 255 0 0
-0.024470022 0.0023932057 -0.016330509 255 0 0
-0.02460121 0.0023238547 -0.017489016 255 0 0
-0.024695929 0.002241577 -0.018666944 255 0 0
-0.024708185 0.0021302351 -0.019888025 255 0 0
-0.024889544 0.002078264 -0.021023558 255 0 0
-0.024748942 0.0019129849 -0.022325328 255 0 0
-0.02484218 0.0018298001 -0.023508143 255 0 0
-0.024712322 0.00166801 -0.024807189 255 0 0
-0.024982266 0.0016468528 -0.025900789 255 0 0
-0.025166225 0.0015953901 -0.027039448 255 0 0
-0.02510545 0.0014575334 -0.028306313 255 0 0
-0.025110656 0.0013428917 -0.029540095 255 0 0
-0.02538662 0.0013235698 -0.030633464 255 0 0
-0.025451716 0.0012298302 -0.03183784 255 0 0
-0.025559608 0.0011511247 -0.033020791 255 0 0
-0.025628289 0.0010584522 -0.034225427 255 0 0
-0.025648676 0.00094860356 -0.035456609 255 0 0
-0.025835203 0.00089734985 -0.036600947 255 0 0
-0.025977496 0.00083041028 -0.037769515 255 0 0
-0.025929607 0.00069618586 -0.039040152 255 0 0
-0.026063284 0.0006260075 -0.04021522 255 0 0
-0.026360333 0.00061352778 -0.041303854 255 0 0
-0.026564844 0.00056830794 -0.042442434 255 0 0
-0.026829511 0.000544223 -0.043549489 255 0 0
-0.027114637 0.00052742241 -0.04464595 255 0 0
-0.027249569 0.00045732551 -0.045824148 255 0 0
-0.027485803 0.00042306772 -0.046948243 255 0 0
-0.027759191 0.00040195324 -0.048052765 255 0 0
-0.027959637 0.00035489124 -0.049197614 255 0 0
-0.028198469 0.00032139767 -0.050322078 255 0 0
-0.028365873 0.00026241617 -0.051486481 255 0 0
-0.028646164 0.00024350574 -0.052589506 255 0 0
-0.028722575 0.00015216417 -0.053805172 255 0 0
-0.029033046 0.00014381055 -0.054893035 255 0 0
-0.029347301 0.00013681802 -0.055979125 255 0 0
-0.029523663 8.0725884e-05 -0.05714196 255 0 0
-0.029714845 2.9893636e-05 -0.058297295 255 0 0
-0.029748064 -7.725686e-05 -0.059541468 255 0 0
-0.02996886 -0.000117791 -0.060682133 255 0 0
-0.030037809 -0.0002124138 -0.061908271 255 0 0
-0.030269815 -0.00024907439 -0.063044146 255 0 0
-0.03039651 -0.00032328107 -0.064239874 255 0 0
-0.030411752 -0.00043730342 -0.065499231 255 0 0
-0.030380655 -0.0005679758 -0.066786073 255 0 0
-0.030354001 -0.00069722702 -0.068071723 255 0 0
-0.030488379 -0.00076909584 -0.069267355 255 0 0
-0.030146295 -0.001011219 -0.070735179 255 0 0
-0.030260615 -0.0010904581 -0.071944602 255 0 0
-0.030302592 -0.0011956749 -0.073196568 255 0 0
-0.030348517 -0.0012995569 -0.074447244 255 0 0
-0.03024515 -0.0014570166 -0.075785153 255 0 0
-0.030076362 -0.0016379844 -0.077162072 255 0 0
-0.026894918 -0.0028968006 -0.08028049 255 0 0
-0.0099102482 -0.0090962676 -0.091398485 159 0 0
0.011614765 0.0043247831 0.10838727 0 0 223
0.0078569837 0.005481482 0.1086068 0 0 255
0.0039729294 0.0066812588 0.10887959 0 0 255
-0.00060912035 0.0081166569 0.10941396 0 0 255
-0.0041044424 0.0091873305 0.10956239 0 0 255
-0.0078876587 0.010355573 0.10982312 0 0 255
-0.010461586 0.0111174 0.10964862 0 0 255
-0.010912988 0.011164797 0.10869875 0 0 255
-0.0111823 0.011150847 0.10768187 0 0 255
-0.011195069 0.011050418 0.10656946 0 0 255
-0.011438343 0.011027564 0.10554173 0 0 255
-0.01149086 0.010940408 0.10444256 0 0 255
0.013977078 0.0022437493 0.093809344 0 0 255
-0.011807586 0.010837206 0.10232072 0 0 255
-0.011812608 0.010733791 0.10120118 0 0 255
-0.011856706 0.010643353 0.10009515 0 0 255
-0.012002743 0.010587397 0.09902703 0 0 255
-0.012233982 0.010560129 0.09799049 0 0 255
-0.012282033 0.01047084 0.096883476 0 0 255
-0.012302162 0.010372044 0.095764995 0 0 255
-0.012154085 0.01021627 0.09458109 0 0 255
-0.013271744 0.010488655 0.093882158 0 0 255
-0.013327159 0.010401607 0.092775367 0 0 255
-0.010425935 0.0093134912 0.090524465 255 0 0
-0.010130513 0.0091071064 0.089276142 255 0 0
-0.010242486 0.0090386402 0.088184699 255 0 0
-0.010347141 0.0089675738 0.087089404 255 0 0
-0.010920921 0.009055539 0.086177111 255 0 0
0.01957809 -0.0013947638 0.07306347 255 0 0
-0.011959235 0.0091943406 0.084310263 255 0 0
-0.012479162 0.0092640873 0.083377428 255 0 0
-0.013307436 0.0094385501 0.082567036 255 0 0
-0.013975028 0.0095584774 0.08169359 255 0 0
-0.014616594 0.0096696448 0.080810361 255 0 0
-0.01540662 0.0098312506 0.079986982 255 0 0
-0.016054129 0.0099445069 0.079107232 255 0 0
-0.016800791 0.010091619 0.078268014 255 0 0
-0.017408304 0.010191374 0.077373199 255 0 0
-0.018082252 0.010313774 0.076505758 255 0 0
-0.018670414 0.010407041 0.075604044 255 0 0
-0.019242918 0.010495033 0.074696325 255 0 0
-0.019724971 0.0105522 0.073751926 255 0 0
0.027201936 -0.0055445805 0.053386614 255 0 0
-0.020772308 0.010695023 0.071897663 255 0 0
-0.021239273 0.010747088 0.070947468 255 0 0
-0.021717012 0.010802882 0.070001818 255 0 0
-0.022172777 0.010851099 0.069047056 255 0 0
-0.022692887 0.01092135 0.068119146 255 0 0
-0.023076361 0.010944974 0.06713444 255 0 0
-0.023570616 0.011006388 0.066195883 255 0 0
-0.023909632 0.011014801 0.065192416 255 0 0
-0.024295093 0.011039021 0.064208113 255 0 0
-0.024640419 0.011049548 0.063206837 255 0 0
-0.02496179 0.01105187 0.062195152 255 0 0
-0.025223864 0.011033837 0.061157994 255 0 0
-0.025517169 0.011026511 0.060133696 255 0 0
-0.025929876 0.011059956 0.059159957 255 0 0
-0.026162634 0.011031827 0.058109157 255 0 0
-0.026449548 0.011022128 0.05708104 255 0 0
-0.026693035 0.01099757 0.056033898 255 0 0
-0.027036667 0.011007303 0.055029433 255 0 0
-0.027029611 0.010896712 0.053872924 255 0 0
-0.027424656 0.010924001 0.052889861 255 0 0
-0.027547078 0.010857737 0.051788036 255 0 0
-0.02776514 0.01082416 0.050727092 255 0 0
-0.02781298 0.010732096 0.049590994 255 0 0
-0.028141944 0.010736506 0.04857742 255 0 0
0.028685117 -0.008899766 0.022384742 255 0 0
-0.028315922 0.010578927 0.046335708 255 0 0
-0.028274579 0.010455846 0.045156594 255 0 0
-0.028668171 0.010482295 0.044169545 255 0 0
-0.028807575 0.01042127 0.043069135 255 0 0
-0.028817644 0.010315611 0.041910157 255 0 0
-0.029117251 0.010309598 0.040879779 255 0 0
0.027160412 -0.009184815 0.014428479 255 0 0
-0.029215099 0.010124739 0.03859207 255 0 0
-0.029109979 0.0099789798 0.037377115 255 0 0
-0.029170178 0.0098901624 0.036235683 255 0 0
-0.029312335 0.0098295594 0.035130534 255 0 0
-0.029262828 0.0097026518 0.033937205 255 0 0
-0.029400231 0.0096402364 0.032828104 255 0 0
-0.029378461 0.0095227594 0.031645313 255 0 0
-0.029248027 0.0093676038 0.030411361 255 0 0
-0.029285096 0.0092702042 0.029253056 255 0 0
-0.029146543 0.009112047 0.028012723 255 0 0
-0.028922424 0.0089241201 0.026731161 255 0 0
-0.028911635 0.0088098636 0.025547005 255 0 0
-0.028481979 0.0085505163 0.024166578 255 0 0
-0.028334063 0.00838851 0.022915479 255 0 0
-0.028481187 0.0083284648 0.02180101 255 0 0
-0.028273918 0.008145622 0.020519454 255 0 0
0.023561783 -0.0099255005 -0.0050745024 255 0 0
-0.02790249 0.0077944817 0.017971536 255 0 0
-0.027543297 0.0075584664 0.016612917 255 0 0
-0.027547138 0.0074482332 0.01542465 255 0 0
-0.02700974 0.0071500833 0.013977619 255 0 0
-0.027051112 0.0070525217 0.012804208 255 0 0
-0.026852529 0.0068716235 0.011515051 255 0 0
-0.026677221 0.0066986661 0.010235329 255 0 0
-0.0264422 0.0065047909 0.0089252545 255 0 0
-0.026094044 0.0062713912 0.0075587663 255 0 0
-0.025951907 0.0061094193 0.0062899035 255 0 0
-0.025629006 0.0058844751 0.0049318336 255 0 0
-0.025059735 0.0055736476 0.0034519862 255 0 0
-0.025365096 0.0055669243 0.0023959195 255 0 0
-0.025146956 0.0053779073 0.0010835783 255 0 0
-0.024984309 0.0052080983 -0.00020341919 255 0 0
-0.024691815 0.0049928664 -0.0015556955 255 0 0
-0.024370532 0.0047674039 -0.0029242246 255 0 0
-0.024774585 0.0047946516 -0.0039363825 255 0 0
-0.02467915 0.0046477229 -0.00519598 255 0 0
-0.024311535 0.0044056782 -0.0065922532 255 0 0
-0.024107732 0.0042205718 -0.0079092253 255 0 0
-0.024546966 0.0042598401 -0.0089067193 255 0 0
-0.024494287 0.0041272747 -0.010150531 255 0 0
-0.024515426 0.0040204162 -0.011358638 255 0 0
-0.024597516 0.0039346917 -0.012537263 255 0 0
-0.024279142 0.0037088799 -0.013918919 255 0 0
-0.024438651 0.0036500792 -0.015060822 255 0 0
-0.024576027 0.0035834368 -0.016214693 255 0 0
-0.0244307 0.0034177245 -0.017513273 255 0 0
-0.024335152 0.0032693227 -0.018787939 255 0 0
-0.024659056 0.0032676591 -0.019849798 255 0 0
-0.024640745 0.0031461252 -0.021087272 255 0 0
-0.024678893 0.0030441908 -0.022297071 255 0 0
-0.024729691 0.0029466539 -0.023501419 255 0 0
-0.024753265 0.00283943 -0.02472089 255 0 0
-0.024967212 0.00279889 -0.025843007 255 0 0
-0.024916975 0.002665611 -0.027102832 255 0 0
-0.024971321 0.0025688927 -0.028309615 255 0 0
-0.025157988 0.0025185344 -0.029448498 255 0 0
-0.025129505 0.0023925013 -0.03070062 255 0 0
-0.025369795 0.0023608366 -0.031813033 255 0 0
-0.025433714 0.00226714 -0.033018749 255 0 0
-0.025302477 0.0021046419 -0.034328531 255 0 0
-0.025534702 0.0020699459 -0.03544765 255 0 0
-0.025610916 0.0019802239 -0.036650121 255 0 0
-0.025759954 0.0019160813 -0.037814908 255 0 0
-0.025855482 0.0018329966 -0.039009076 255 0 0
-0.026018001 0.0017734166 -0.040168483 255 0 0
-0.026106123 0.0016875427 -0.041368537 255 0 0
-0.026311927 0.0016430649 -0.042506348 255 0 0
-0.026545854 0.0016084703 -0.043629762 255 0 0
-0.026820444 0.0015881575 -0.044731807 255 0 0
-0.027048901 0.0015514954 -0.045859382 255 0 0
-0.027097721 0.0014513313 -0.047084861 255 0 0
-0.027422922 0.0014487208 -0.048161339 255 0 0
-0.027634017 0.0014057517 -0.049300388 255 0 0
-0.027899882 0.0013821166 -0.050410125 255 0 0
-0.028008763 0.0013028439 -0.051606402 255 0 0
-0.028265567 0.0012758523 -0.052722443 255 0 0
-0.028479336 0.0012335216 -0.05386278 255 0 0
-0.028655948 0.0011780511 -0.055024143 255 0 0
-0.028831815 0.001122235 -0.056186732 255 0 0
-0.029196057 0.0011330413 -0.057245731 255 0 0
-0.029291175 0.0010484579 -0.058454525 255 0 0
-0.029471913 0.00099412445 -0.059616648 255 0 0
-0.029623065 0.00092928694 -0.06079597 255 0 0
-0.029711418 0.00084203528 -0.062011313 255 0 0
-0.029880254 0.00078321673 -0.063182615 255 0 0
-0.029895911 0.00066997949 -0.064440839 255 0 0
-0.029972035 0.00057816401 -0.065666109 255 0 0
-0.030090261 0.00050109188 -0.066868782 255 0 0
0.013823284 -0.015226047 -0.093007974 255 0 0
-0.029933853 0.00020711863 -0.069499865 255 0 0
-0.029868178 6.4412474e-05 -0.070810519 255 0 0
-0.029857084 -5.9068778e-05 -0.072091505 255 0 0
-0.029980768 -0.00013471907 -0.0732968 255 0 0
-0.02976948 -0.00032967236 -0.074695028 255 0 0
-0.02997471 -0.00037645956 -0.075855799 255 0 0
-0.029991532 -0.00049044425 -0.077125698 255 0 0
-0.029759858 -0.0006931501 -0.07854037 255 0 0
-0.012932775 -0.0068137576 -0.089561276 223 0 0
0.011864104 0.0053679193 0.10831316 0 0 191
0.007872737 0.0065990184 0.1086169 0 0 255
0.0036491801 0.0079085762 0.10901275 0 0 255
-0.0003222005 0.0091345003 0.10932614 0 0 255
-0.0039928686 0.010260469 0.10953838 0 0 255
-0.0073816204 0.011292493 0.10965531 0 0 255
-0.010481476 0.01222825 0.10967313 0 0 255
-0.011118905 0.012338074 0.10879201 0 0 255
-0.011353473 0.012312736 0.10776291 0 0 255
-0.01137829 0.012216927 0.10665574 0 0 255
-0.011423185 0.012127761 0.10555486 0 0 255
-0.011504866 0.012050826 0.10446684 0 0 255
-0.011641672 0.011992378 0.10339858 0 0 255
-0.01165604 0.011892703 0.10228374 0 0 255
-0.01181646 0.01184207 0.10122278 32 0 223
0.013095031 0.0033543671 0.090706766 128 0 128
-0.011803903 0.011628364 0.098972738 0 0 255
-0.012052249 0.011607125 0.097942755 0 0 255
0.012195433 0.003334349 0.087587371 64 0 191
-0.012265281 0.011468798 0.095772885 0 0 255
-0.012361357 0.011396072 0.09468285 0 0 255
-0.013099108 0.011539591 0.093838573 0 0 255
-0.01325605 0.011487292 0.092771061 0 0 255
-0.010330774 0.010394963 0.090511203 223 0 32
-0.010153389 0.010229377 0.08930894 255 0 0
-0.010131261 0.010116007 0.088165641 255 0 0
-0.010319705 0.010073672 0.087103382 255 0 0
0.01946296 -9.4480209e-05 0.074308574 255 0 0
-0.011255612 0.010177764 0.08519645 255 0 0
-0.011900559 0.010289711 0.084312938 255 0 0
-0.012578596 0.010412882 0.083442912 255 0 0
-0.01314343 0.010497692 0.082528412 255 0 0
-0.013892164 0.010644837 0.08168745 255 0 0
-0.014593976 0.010776234 0.080828622 255 0 0
-0.015218203 0.010881311 0.079939105 255 0 0
0.024826331 -0.0027902049 0.062737793 255 0 0
-0.016569071 0.011126431 0.078203 255 0 0
-0.017279631 0.01126093 0.077349856 255 0 0
-0.017884403 0.011359631 0.076454669 255 0 0
-0.018455612 0.011446943 0.075546168 255 0 0
-0.019074911 0.01155067 0.074657619 255 0 0
-0.019607127 0.011624875 0.073733844 255 0 0
-0.020121163 0.011692914 0.072802939 255 0 0
-0.020702993 0.011784011 0.071900018 255 0 0
-0.021150848 0.011829589 0.070942186 255 0 0
-0.021626551 0.011884569 0.069995917 255 0 0
-0.022083666 0.011933374 0.069042012 255 0 0
-0.022478851 0.011961111 0.068062499 255 0 0
-0.02295085 0.012014849 0.067114785 255 0 0
-0.023420818 0.012067953 0.066166267 255 0 0
-0.023814857 0.012095258 0.065186046 255 0 0
-0.024129424 0.012095461 0.064172275 255 0 0
-0.024506794 0.012117052 0.063184641 255 0 0
-0.024921855 0.012151433 0.062212802 255 0 0
-0.02523504 0.012151077 0.061197657 255 0 0
-0.025436858 0.012112706 0.060134821 255 0 0
-0.025865156 0.012151609 0.059168056 255 0 0
-0.026078664 0.012117127 0.058109295 255 0 0
-0.026279228 0.012078278 0.05704445 255 0 0
-0.026564471 0.012068165 0.056015402 255 0 0
-0.026867948 0.012064264 0.054993819 255 0 0
-0.027105238 0.012037792 0.053943273 255 0 0
-0.027327342 0.012006057 0.05288557 255 0 0
-0.027484836 0.011952125 0.051799282 255 0 0
-0.027572928 0.01187444 0.050681904 255 0 0
-0.027814312 0.011849101 0.049630821 255 0 0
-0.027945308 0.011785933 0.048530675 255 0 0
-0.028147168 0.011746981 0.047460984 255 0 0
-0.028153418 0.011640931 0.046304248 255 0 0
-0.028412405 0.011621402 0.045258444 255 0 0
-0.028491056 0.011540009 0.044132084 255 0 0
-0.028731005 0.011513803 0.043076552 255 0 0
-0.028752999 0.011412844 0.041923206 255 0 0
-0.028722389 0.011293682 0.040745202 255 0 0
0.027740944 -0.0081959022 0.01421301 255 0 0
-0.029026318 0.011180461 0.038550127 255 0 0
-0.029234966 0.011143231 0.037477158 255 0 0
-0.029090965 0.010984756 0.036243707 255 0 0
-0.029252592 0.01093121 0.035147715 255 0 0
-0.029302811 0.010839288 0.034000233 255 0 0
-0.028977668 0.010618197 0.032680247 255 0 0
-0.029288393 0.010615625 0.031649582 255 0 0
-0.029016878 0.01041264 0.030351114 255 0 0
-0.029119493 0.01033832 0.029223185 255 0 0
-0.02894515 0.010168605 0.02796652 255 0 0
-0.028803593 0.010009912 0.026723318 255 0 0
-0.028819738 0.0099054733 0.025551895 255 0 0
-0.028407395 0.0096532265 0.024179898 255 0 0
-0.028437871 0.0095535126 0.023012495 255 0 0
-0.028150721 0.0093440376 0.021695228 255 0 0
-0.028135408 0.0092282426 0.020503698 255 0 0
-0.027748188 0.0089839436 0.019135894 255 0 0
